ncols        257
nrows        74
xllcorner    6.351471000000
yllcorner    44.903870000000
dx           0.000277863813
dy           0.000276782946
NODATA_value -32768
3708 3757 3781 3804 3815 3825 3836 3848 3867 3866 3859 3850 3843 3834 3828 3826 3811 3805 3808 3802 3791 3783 3787 3780 3776 3765 3760 3757 3752 3748 3740 3739 3739 3742 3745 3747 3744 3746 3743 3749 3756 3758 3752 3753 3766 3768 3772 3767 3742 3717 3697 3655 3621 3580 3537 3511 3478 3450 3417 3380 3359 3337 3310 3291 3268 3255 3235 3237 3220 3222 3203 3189 3178 3170 3154 3151 3159 3166 3174 3182 3193 3196 3199 3197 3186 3170 3151 3138 3130 3121 3117 3116 3118 3084 3062 3060 3034 3020 2986 2960 2944 2925 2912 2901 2892 2885 2867 2862 2860 2856 2853 2854 2863 2877 2897 2915 2922 2896 2873 2832 2806 2776 2761 2759 2764 2756 2750 2737 2720 2695 2665 2661 2651 2645 2624 2624 2621 2637 2640 2650 2655 2654 2645 2646 2647 2645 2636 2631 2616 2593 2561 2555 2528 2535 2532 2514 2514 2513 2494 2482 2488 2484 2466 2457 2441 2419 2393 2388 2385 2352 2348 2331 2308 2295 2298 2293 2292 2310 2314 2320 2287 2274 2264 2258 2247 2233 2224 2212 2212 2212 2213 2219 2223 2245 2240 2238 2223 2228 2243 2244 2235 2223 2204 2173 2170 2170 2164 2151 2157 2158 2158 2147 2133 2116 2094 2091 2086 2089 2084 2082 2077 2080 2088 2094 2107 2126 2144 2175 2196 2216 2236 2245 2260 2272 2280 2286 2294 2305 2310 2312 2315 2323 2333 2343 2357 2368 2382 2392 2399 2410 2417 2422 2418 2407 2398 2385 2381
3743 3772 3801 3830 3844 3857 3875 3877 3884 3883 3878 3871 3856 3862 3852 3846 3844 3844 3839 3836 3827 3810 3807 3798 3794 3788 3775 3761 3753 3752 3763 3763 3763 3770 3775 3776 3780 3768 3767 3767 3770 3764 3760 3758 3757 3755 3746 3730 3718 3695 3656 3627 3575 3543 3513 3472 3441 3405 3370 3352 3330 3305 3279 3249 3228 3207 3199 3187 3180 3180 3164 3147 3127 3127 3127 3131 3133 3136 3142 3156 3168 3180 3178 3176 3168 3157 3143 3131 3122 3107 3102 3094 3085 3061 3055 3021 2982 2970 2936 2928 2924 2917 2904 2898 2889 2863 2845 2850 2844 2840 2834 2836 2844 2853 2859 2858 2870 2850 2833 2803 2773 2753 2748 2738 2745 2737 2728 2709 2687 2679 2661 2649 2635 2627 2609 2609 2611 2613 2617 2628 2633 2636 2631 2631 2631 2629 2605 2602 2565 2552 2514 2508 2514 2516 2509 2512 2495 2478 2470 2463 2463 2453 2445 2439 2416 2396 2373 2351 2335 2334 2302 2304 2299 2292 2272 2266 2272 2271 2272 2271 2265 2259 2251 2240 2213 2206 2198 2190 2189 2192 2200 2202 2216 2209 2197 2191 2188 2183 2193 2191 2194 2183 2172 2166 2157 2151 2149 2134 2140 2151 2150 2138 2110 2104 2101 2093 2079 2076 2074 2072 2068 2068 2068 2067 2094 2105 2124 2155 2178 2197 2214 2221 2233 2250 2263 2278 2279 2282 2282 2289 2293 2293 2305 2318 2323 2329 2345 2364 2373 2381 2388 2389 2387 2382 2376 2366 2359
3751 3786 3822 3851 3878 3897 3926 3915 3918 3916 3912 3903 3899 3892 3886 3879 3868 3855 3859 3860 3854 3841 3839 3831 3830 3821 3815 3796 3786 3783 3800 3795 3790 3790 3803 3798 3799 3794 3791 3784 3779 3774 3775 3764 3752 3740 3718 3696 3678 3647 3617 3554 3539 3510 3487 3446 3399 3364 3350 3327 3301 3269 3237 3208 3177 3170 3162 3145 3143 3140 3126 3116 3111 3109 3105 3106 3103 3103 3107 3114 3123 3136 3146 3151 3148 3141 3133 3124 3109 3098 3084 3057 3058 3052 3021 2989 2975 2931 2923 2921 2914 2904 2897 2885 2870 2846 2837 2836 2834 2827 2825 2828 2835 2841 2842 2844 2839 2829 2793 2777 2750 2734 2728 2712 2713 2703 2690 2686 2674 2668 2650 2637 2621 2608 2596 2591 2584 2585 2593 2590 2595 2600 2604 2595 2595 2579 2582 2547 2546 2515 2508 2499 2484 2484 2480 2486 2483 2474 2461 2446 2436 2431 2424 2416 2403 2378 2351 2337 2311 2304 2305 2297 2274 2267 2244 2240 2240 2238 2231 2241 2244 2237 2216 2201 2194 2200 2187 2189 2183 2175 2172 2175 2181 2161 2150 2138 2145 2143 2147 2161 2156 2156 2147 2141 2135 2123 2124 2129 2133 2134 2135 2124 2109 2102 2090 2078 2064 2058 2062 2050 2056 2057 2058 2059 2065 2087 2101 2119 2156 2182 2198 2205 2217 2229 2236 2247 2261 2258 2258 2261 2268 2273 2284 2292 2301 2304 2311 2325 2341 2355 2364 2367 2367 2365 2345 2331 2328
3760 3801 3842 3871 3916 3928 3937 3966 3967 3962 3960 3947 3937 3927 3919 3908 3901 3886 3888 3879 3881 3868 3863 3858 3851 3849 3840 3844 3837 3841 3837 3833 3818 3808 3806 3802 3807 3814 3804 3795 3795 3796 3781 3778 3759 3741 3711 3681 3651 3609 3559 3548 3522 3488 3453 3402 3369 3356 3335 3319 3276 3236 3188 3167 3148 3121 3118 3095 3100 3108 3107 3099 3094 3089 3090 3085 3086 3087 3090 3096 3100 3102 3114 3121 3127 3132 3129 3116 3103 3083 3063 3042 3047 3019 2998 2990 2955 2933 2921 2907 2898 2888 2876 2858 2843 2828 2829 2829 2822 2823 2812 2815 2823 2826 2830 2811 2801 2776 2767 2755 2740 2719 2700 2699 2691 2683 2675 2665 2661 2651 2634 2617 2602 2588 2575 2566 2565 2563 2567 2565 2565 2562 2569 2568 2561 2554 2553 2521 2516 2515 2490 2483 2474 2467 2469 2464 2460 2454 2442 2421 2412 2407 2404 2392 2379 2353 2342 2317 2287 2292 2262 2253 2251 2244 2227 2214 2190 2196 2199 2194 2186 2181 2184 2186 2182 2182 2158 2165 2152 2158 2139 2118 2119 2132 2140 2142 2141 2135 2136 2137 2149 2143 2135 2129 2120 2109 2103 2099 2103 2115 2118 2113 2110 2102 2078 2059 2047 2043 2043 2035 2039 2040 2044 2041 2061 2071 2082 2094 2105 2130 2160 2190 2196 2199 2205 2215 2222 2217 2223 2228 2227 2237 2257 2274 2284 2283 2289 2300 2315 2340 2357 2355 2359 2348 2325 2317 2309
3762 3803 3843 3884 3914 3939 3967 3974 3979 3979 3976 3967 3955 3948 3941 3935 3925 3918 3912 3906 3899 3886 3873 3868 3867 3874 3869 3871 3871 3869 3874 3872 3848 3838 3831 3831 3822 3821 3814 3818 3809 3801 3792 3766 3739 3713 3680 3647 3610 3556 3550 3529 3492 3463 3425 3398 3367 3340 3323 3288 3248 3195 3155 3136 3115 3101 3087 3074 3064 3067 3068 3069 3065 3061 3058 3050 3055 3056 3060 3067 3079 3084 3092 3102 3107 3116 3115 3107 3086 3059 3036 3031 3011 2994 2983 2961 2950 2924 2916 2906 2885 2862 2842 2843 2833 2819 2818 2815 2812 2802 2799 2803 2807 2810 2812 2793 2776 2769 2752 2733 2722 2695 2692 2668 2664 2666 2655 2645 2633 2617 2605 2580 2577 2567 2562 2552 2542 2535 2532 2531 2537 2537 2544 2544 2537 2531 2513 2508 2510 2493 2477 2454 2444 2451 2444 2445 2441 2428 2410 2399 2388 2384 2375 2367 2351 2345 2307 2271 2275 2258 2236 2223 2198 2191 2197 2185 2182 2178 2177 2171 2163 2154 2153 2151 2169 2162 2151 2102 2092 2090 2091 2091 2103 2115 2116 2112 2115 2119 2116 2110 2112 2102 2097 2094 2100 2090 2088 2082 2092 2104 2099 2099 2105 2076 2062 2041 2033 2029 2024 2008 2002 2020 2023 2030 2048 2066 2077 2089 2100 2108 2124 2147 2167 2177 2188 2197 2195 2195 2196 2214 2218 2220 2223 2235 2250 2254 2266 2280 2297 2303 2332 2341 2343 2326 2311 2289 2291
3763 3804 3845 3886 3913 3944 3964 3970 3976 3985 3986 3974 3963 3948 3948 3941 3934 3928 3929 3921 3916 3901 3887 3882 3879 3878 3886 3888 3890 3900 3911 3909 3875 3882 3863 3846 3839 3835 3838 3840 3823 3806 3789 3754 3719 3684 3648 3612 3575 3548 3515 3489 3460 3432 3412 3388 3364 3330 3295 3259 3200 3162 3132 3120 3105 3089 3061 3049 3050 3047 3045 3035 3026 3028 3028 3026 3025 3028 3031 3037 3043 3048 3053 3063 3067 3073 3077 3065 3048 3033 3006 2989 2987 2980 2962 2946 2937 2916 2901 2877 2868 2844 2840 2831 2823 2818 2817 2808 2801 2794 2792 2790 2788 2783 2778 2774 2764 2756 2734 2725 2707 2694 2667 2665 2653 2644 2628 2620 2605 2586 2566 2562 2559 2550 2541 2534 2520 2512 2506 2503 2503 2502 2500 2519 2515 2502 2503 2491 2476 2468 2456 2446 2436 2430 2420 2414 2410 2397 2381 2374 2370 2358 2350 2346 2338 2300 2269 2242 2228 2199 2201 2197 2176 2179 2170 2166 2165 2166 2162 2156 2150 2151 2151 2150 2140 2116 2085 2077 2073 2081 2081 2080 2081 2081 2079 2079 2083 2091 2094 2097 2091 2087 2083 2082 2082 2073 2069 2065 2070 2075 2073 2077 2078 2057 2038 2027 2021 2016 2012 1997 1996 1995 2007 2002 2025 2050 2062 2070 2078 2088 2097 2109 2130 2147 2164 2175 2173 2172 2180 2192 2203 2206 2211 2217 2223 2237 2248 2269 2285 2297 2304 2306 2307 2303 2284 2277 2276
3765 3806 3846 3887 3900 3925 3942 3963 3971 3975 3979 3972 3966 3956 3949 3947 3945 3940 3936 3937 3930 3924 3909 3901 3897 3899 3903 3914 3916 3923 3926 3916 3902 3887 3872 3854 3858 3860 3861 3844 3837 3811 3785 3742 3699 3656 3617 3578 3544 3504 3474 3459 3441 3413 3395 3373 3346 3318 3285 3207 3188 3163 3127 3110 3085 3065 3049 3033 3022 3019 3012 3002 2992 2985 2980 2977 2984 2995 3004 3012 3020 3024 3027 3028 3027 3027 3030 3032 3025 3006 2987 2975 2962 2946 2940 2934 2923 2897 2883 2862 2840 2839 2829 2821 2808 2806 2799 2785 2787 2776 2780 2766 2760 2754 2758 2765 2747 2727 2726 2719 2708 2686 2667 2655 2633 2623 2609 2600 2586 2572 2567 2553 2546 2536 2522 2499 2498 2489 2490 2485 2494 2497 2475 2477 2481 2472 2464 2459 2446 2442 2443 2432 2426 2410 2394 2375 2368 2368 2362 2355 2342 2338 2334 2318 2296 2258 2234 2230 2186 2176 2173 2169 2168 2167 2169 2161 2160 2158 2152 2140 2134 2139 2134 2127 2094 2080 2078 2079 2075 2072 2067 2069 2068 2068 2060 2063 2065 2075 2068 2050 2053 2053 2056 2052 2063 2064 2060 2036 2039 2046 2060 2055 2050 2033 2028 2016 2008 2002 1994 1977 1970 1979 1983 1991 2000 2016 2032 2035 2039 2046 2065 2082 2094 2110 2130 2139 2140 2154 2165 2172 2180 2182 2184 2192 2209 2222 2230 2247 2267 2285 2284 2283 2282 2278 2264 2260 2247
3772 3803 3835 3866 3883 3889 3904 3929 3965 3967 3948 3946 3949 3959 3960 3959 3956 3948 3943 3943 3943 3942 3930 3927 3932 3929 3931 3928 3926 3930 3925 3924 3918 3898 3875 3877 3879 3872 3865 3858 3823 3789 3754 3711 3667 3623 3587 3551 3515 3483 3454 3436 3416 3398 3387 3366 3335 3304 3260 3206 3175 3147 3123 3106 3068 3051 3038 3002 2997 2986 2985 2979 2969 2962 2963 2960 2961 2968 2970 2978 2981 2992 2995 2996 2993 2993 2997 2996 2990 2987 2977 2964 2945 2935 2929 2915 2903 2890 2876 2853 2837 2833 2826 2808 2795 2791 2787 2782 2770 2757 2748 2732 2734 2721 2712 2715 2715 2715 2717 2708 2702 2683 2662 2638 2621 2603 2596 2588 2573 2559 2547 2535 2531 2502 2484 2479 2476 2474 2481 2479 2473 2459 2456 2457 2452 2449 2436 2428 2421 2425 2416 2405 2395 2380 2355 2342 2343 2346 2340 2335 2325 2307 2302 2277 2255 2241 2207 2185 2176 2167 2162 2160 2158 2154 2155 2150 2149 2149 2146 2134 2133 2121 2123 2100 2088 2079 2077 2077 2078 2076 2072 2069 2065 2062 2056 2054 2058 2058 2044 2046 2036 2031 2035 2032 2049 2044 2030 2031 2033 2027 2026 2033 2028 2011 2009 1998 1983 1976 1969 1951 1946 1956 1963 1970 1976 1994 2007 2010 2014 2018 2026 2048 2072 2091 2099 2112 2126 2130 2143 2148 2160 2158 2165 2182 2192 2199 2207 2230 2252 2265 2271 2265 2265 2259 2251 2247 2239
3779 3801 3823 3846 3843 3856 3850 3850 3859 3871 3882 3899 3918 3952 3957 3965 3959 3958 3955 3953 3945 3948 3950 3951 3951 3952 3948 3948 3946 3938 3933 3927 3920 3912 3901 3900 3899 3884 3868 3853 3810 3767 3724 3679 3635 3590 3557 3524 3490 3460 3432 3413 3401 3391 3375 3363 3317 3256 3223 3206 3171 3142 3112 3080 3061 3029 3003 2985 2983 2962 2957 2947 2952 2943 2938 2933 2931 2933 2932 2930 2936 2946 2963 2964 2971 2976 2980 2979 2978 2974 2967 2957 2942 2928 2909 2899 2892 2876 2868 2857 2842 2835 2808 2799 2784 2775 2768 2762 2763 2740 2727 2728 2721 2713 2694 2686 2690 2704 2701 2705 2680 2666 2652 2633 2617 2595 2584 2576 2559 2540 2527 2515 2509 2485 2474 2466 2464 2464 2451 2454 2451 2451 2444 2440 2436 2430 2419 2415 2401 2390 2387 2376 2363 2345 2332 2329 2325 2330 2325 2315 2302 2281 2273 2252 2243 2212 2198 2185 2175 2168 2163 2159 2154 2150 2152 2157 2149 2146 2142 2136 2125 2120 2110 2095 2086 2083 2079 2077 2077 2075 2071 2065 2057 2061 2048 2048 2043 2044 2036 2031 2028 2027 2032 2028 2030 2022 2020 2016 2011 2015 2022 1998 1984 1965 1953 1944 1945 1946 1942 1935 1929 1944 1952 1958 1963 1977 1982 1986 1993 2003 2009 2019 2036 2066 2074 2082 2099 2104 2122 2134 2133 2134 2147 2158 2173 2182 2195 2207 2221 2237 2241 2236 2229 2221 2221 2217 2214
3786 3799 3793 3801 3798 3790 3790 3792 3795 3806 3815 3841 3871 3896 3926 3935 3961 3967 3967 3973 3972 3964 3966 3974 3977 3970 3967 3967 3956 3948 3942 3930 3930 3931 3927 3924 3900 3896 3872 3848 3796 3745 3693 3648 3602 3557 3527 3496 3465 3436 3419 3401 3386 3385 3372 3340 3279 3258 3229 3179 3158 3124 3084 3074 2989 2967 2967 2963 2958 2944 2944 2945 2930 2928 2916 2913 2913 2915 2915 2912 2905 2911 2917 2928 2940 2947 2955 2959 2966 2960 2952 2941 2928 2914 2893 2890 2878 2864 2855 2847 2838 2821 2808 2785 2773 2761 2763 2748 2720 2716 2698 2692 2693 2687 2685 2673 2676 2686 2686 2679 2669 2656 2644 2628 2609 2585 2572 2552 2538 2521 2518 2506 2489 2479 2465 2456 2444 2439 2431 2418 2419 2429 2428 2427 2426 2419 2408 2397 2379 2361 2352 2348 2344 2331 2330 2323 2311 2306 2284 2287 2280 2276 2264 2250 2234 2212 2201 2188 2177 2171 2166 2162 2156 2153 2155 2153 2148 2155 2143 2134 2125 2115 2103 2090 2084 2078 2080 2075 2073 2071 2069 2056 2052 2045 2044 2046 2033 2028 2024 2025 2015 2016 2020 2019 2018 2010 2004 1997 1997 1989 1983 1960 1953 1951 1942 1923 1930 1928 1929 1918 1923 1932 1946 1950 1954 1964 1972 1979 1986 1992 1995 2002 2011 2026 2041 2058 2077 2092 2103 2112 2114 2110 2120 2140 2155 2172 2180 2192 2202 2207 2206 2209 2203 2192 2195 2188 2181
3750 3754 3753 3757 3759 3756 3756 3760 3763 3766 3771 3792 3816 3843 3875 3903 3934 3966 3979 3985 4010 4013 4004 4003 4000 3988 3981 3975 3969 3955 3955 3950 3946 3941 3929 3916 3904 3872 3840 3808 3758 3708 3659 3617 3575 3534 3494 3464 3431 3419 3402 3387 3379 3371 3335 3299 3263 3226 3189 3163 3117 3084 3068 2985 2969 2960 2962 2944 2932 2934 2912 2908 2909 2909 2897 2900 2897 2899 2894 2887 2888 2894 2903 2909 2917 2926 2936 2941 2942 2939 2934 2934 2922 2907 2884 2866 2851 2852 2844 2838 2825 2826 2791 2783 2761 2746 2735 2722 2710 2691 2683 2665 2672 2675 2671 2669 2668 2667 2672 2660 2648 2641 2632 2613 2591 2569 2548 2528 2516 2508 2495 2488 2476 2463 2447 2436 2421 2409 2395 2389 2401 2410 2406 2409 2406 2404 2389 2373 2348 2338 2330 2326 2322 2317 2310 2305 2308 2288 2275 2271 2269 2268 2262 2243 2229 2214 2204 2193 2184 2177 2171 2166 2162 2159 2160 2155 2148 2148 2127 2115 2110 2106 2096 2087 2082 2077 2072 2069 2063 2053 2046 2040 2036 2034 2024 2023 2023 2021 2019 2011 2006 2010 2015 2011 2008 2006 1998 1985 1966 1969 1966 1955 1934 1929 1929 1914 1916 1920 1908 1906 1909 1916 1924 1929 1940 1951 1971 1974 1968 1975 1982 1987 1997 2003 2013 2024 2046 2071 2072 2084 2090 2088 2102 2113 2136 2149 2160 2165 2179 2182 2187 2186 2177 2168 2169 2164 2144
3719 3724 3717 3720 3727 3735 3736 3739 3739 3743 3747 3758 3778 3816 3842 3875 3906 3951 3986 4009 4012 4022 4030 4034 4020 4024 4006 3993 3983 3982 3980 3971 3961 3952 3930 3909 3888 3848 3808 3767 3720 3672 3624 3586 3548 3498 3469 3428 3410 3379 3377 3366 3357 3338 3307 3267 3223 3187 3157 3121 3085 3065 3005 2977 2968 2955 2946 2928 2923 2898 2893 2897 2892 2893 2891 2888 2879 2874 2868 2863 2865 2868 2881 2892 2900 2907 2915 2918 2916 2920 2926 2919 2907 2888 2865 2851 2844 2825 2832 2827 2824 2798 2781 2770 2748 2734 2721 2711 2700 2687 2659 2657 2653 2657 2645 2646 2652 2658 2646 2643 2636 2629 2609 2592 2571 2551 2527 2518 2506 2494 2485 2473 2469 2446 2438 2420 2407 2389 2382 2385 2386 2400 2394 2394 2384 2371 2353 2342 2324 2307 2300 2295 2292 2290 2286 2289 2286 2281 2267 2272 2269 2265 2250 2239 2221 2211 2203 2198 2186 2176 2170 2164 2162 2158 2160 2135 2114 2114 2114 2101 2096 2088 2076 2072 2067 2063 2057 2056 2050 2035 2024 2007 2007 2009 2010 2006 2013 2004 2004 2003 1986 1985 2000 1993 1997 1967 1953 1942 1935 1932 1929 1930 1930 1921 1917 1907 1913 1911 1903 1901 1902 1905 1907 1920 1923 1934 1943 1965 1960 1964 1967 1975 1983 1989 1997 2004 2002 2009 2044 2063 2080 2089 2086 2094 2109 2125 2132 2141 2148 2153 2153 2152 2146 2139 2138 2144 2133
3705 3707 3708 3708 3710 3714 3716 3714 3714 3719 3727 3741 3758 3780 3818 3856 3904 3943 3987 4006 4023 4036 4031 4035 4031 4025 4014 4012 4010 4008 4006 3991 3977 3962 3932 3902 3844 3824 3775 3727 3681 3636 3590 3546 3504 3464 3435 3396 3383 3373 3359 3343 3324 3307 3281 3240 3198 3144 3118 3078 3059 3034 2980 2975 2942 2922 2920 2903 2882 2882 2875 2882 2879 2883 2878 2870 2862 2852 2853 2854 2851 2851 2854 2864 2879 2884 2896 2900 2903 2907 2912 2895 2871 2862 2840 2836 2822 2809 2806 2804 2793 2780 2766 2753 2734 2716 2708 2694 2680 2661 2649 2642 2633 2608 2610 2619 2639 2639 2630 2623 2611 2595 2582 2566 2549 2535 2525 2508 2492 2494 2479 2471 2452 2440 2424 2412 2394 2374 2365 2364 2364 2363 2358 2360 2352 2342 2311 2298 2290 2287 2279 2279 2275 2272 2276 2273 2267 2269 2264 2263 2259 2253 2246 2236 2222 2211 2204 2196 2181 2171 2163 2156 2149 2129 2117 2109 2100 2099 2085 2078 2074 2077 2079 2061 2055 2052 2045 2051 2031 2019 2012 2003 1999 1998 1996 1988 1995 1994 1974 1968 1977 1976 1975 1979 1958 1950 1937 1932 1927 1922 1921 1923 1923 1918 1913 1913 1912 1907 1895 1894 1895 1894 1897 1902 1906 1910 1923 1948 1949 1950 1955 1957 1965 1972 1980 1992 2000 2000 2005 2023 2063 2079 2072 2085 2092 2098 2109 2112 2119 2117 2119 2118 2116 2129 2136 2134 2121
3693 3696 3697 3693 3694 3696 3702 3704 3709 3712 3717 3729 3750 3768 3803 3841 3895 3941 3980 4006 4017 4030 4033 4033 4029 4025 4016 4009 4006 4002 3999 3976 3953 3930 3892 3854 3816 3767 3719 3670 3628 3586 3544 3513 3468 3430 3399 3374 3358 3354 3342 3323 3318 3280 3249 3205 3148 3116 3078 3052 3027 3004 2971 2938 2925 2923 2887 2880 2858 2858 2856 2865 2875 2873 2869 2850 2843 2838 2841 2843 2841 2831 2829 2841 2858 2861 2869 2863 2877 2883 2884 2855 2852 2833 2823 2820 2800 2793 2796 2791 2767 2757 2740 2730 2712 2697 2685 2673 2661 2648 2634 2618 2611 2613 2600 2606 2616 2616 2599 2593 2583 2567 2559 2554 2545 2530 2512 2488 2490 2473 2466 2452 2442 2421 2409 2396 2380 2369 2353 2351 2347 2341 2335 2330 2321 2311 2291 2284 2281 2278 2277 2274 2274 2280 2276 2271 2265 2261 2258 2257 2253 2248 2241 2219 2214 2203 2196 2186 2177 2173 2160 2144 2129 2116 2106 2101 2095 2089 2084 2070 2065 2072 2067 2052 2053 2047 2040 2031 2020 2010 2005 1998 1992 1988 1982 1984 1979 1975 1963 1960 1957 1955 1952 1955 1949 1942 1933 1929 1923 1922 1916 1918 1919 1915 1918 1919 1908 1903 1895 1895 1896 1897 1897 1893 1896 1900 1909 1916 1927 1933 1938 1944 1950 1962 1965 1962 1974 1979 1989 1989 2018 2035 2046 2050 2070 2076 2078 2082 2093 2096 2095 2085 2088 2085 2080 2088 2083
3675 3682 3681 3676 3677 3682 3688 3692 3702 3711 3715 3724 3735 3762 3783 3846 3899 3943 3987 4003 4009 4017 4019 4024 4027 4026 4009 4007 4002 3996 3991 3960 3930 3899 3852 3806 3759 3711 3662 3614 3575 3537 3498 3470 3442 3396 3368 3362 3343 3329 3321 3314 3271 3243 3220 3194 3141 3093 3057 3023 3006 2964 2942 2924 2879 2886 2880 2860 2842 2846 2851 2860 2859 2856 2853 2844 2839 2840 2837 2834 2830 2807 2813 2808 2828 2836 2843 2838 2841 2838 2843 2826 2818 2819 2800 2804 2791 2786 2782 2769 2749 2736 2716 2696 2683 2672 2664 2654 2642 2641 2615 2613 2604 2591 2586 2585 2582 2581 2579 2577 2568 2556 2549 2541 2531 2508 2497 2477 2467 2465 2449 2431 2421 2409 2395 2380 2364 2354 2347 2345 2334 2329 2324 2319 2313 2303 2295 2288 2280 2277 2285 2287 2284 2279 2276 2269 2262 2260 2257 2254 2246 2236 2212 2212 2204 2196 2183 2187 2180 2171 2158 2138 2116 2110 2106 2096 2100 2084 2077 2068 2060 2052 2058 2059 2054 2048 2043 2034 2022 2007 2002 2000 1995 1988 1991 1985 1976 1974 1958 1950 1950 1946 1940 1947 1944 1942 1932 1928 1926 1922 1919 1917 1915 1916 1915 1913 1908 1903 1898 1898 1896 1892 1894 1892 1890 1892 1893 1896 1904 1911 1921 1926 1933 1939 1946 1951 1956 1956 1956 1964 1977 1989 1996 2003 2030 2052 2065 2070 2072 2057 2044 2039 2055 2061 2063 2057 2059
3654 3653 3657 3660 3660 3663 3676 3680 3689 3703 3712 3716 3728 3757 3778 3845 3901 3937 3961 3992 3997 3997 3999 3998 3994 3993 3999 4004 3997 3991 3959 3945 3906 3867 3812 3758 3703 3654 3606 3557 3522 3487 3452 3427 3389 3352 3351 3342 3328 3310 3288 3270 3243 3220 3197 3160 3107 3049 3037 3002 2974 2944 2908 2882 2885 2880 2862 2840 2832 2834 2830 2834 2836 2831 2830 2830 2835 2831 2822 2820 2806 2793 2789 2789 2796 2808 2810 2815 2815 2820 2815 2812 2792 2797 2798 2784 2775 2771 2758 2751 2730 2706 2689 2672 2660 2655 2647 2631 2626 2610 2602 2595 2588 2585 2574 2570 2568 2574 2569 2566 2551 2546 2537 2527 2513 2497 2469 2464 2452 2442 2434 2420 2405 2396 2382 2372 2365 2346 2341 2334 2323 2317 2315 2313 2307 2300 2296 2292 2290 2286 2284 2287 2283 2280 2277 2265 2244 2247 2237 2218 2211 2198 2193 2198 2195 2190 2185 2187 2181 2178 2159 2138 2107 2102 2097 2094 2091 2087 2082 2074 2058 2052 2048 2058 2055 2055 2049 2039 2029 2017 2011 2010 2003 1992 1984 1978 1969 1963 1956 1955 1955 1946 1940 1941 1949 1939 1935 1929 1925 1922 1919 1916 1914 1913 1912 1909 1904 1902 1898 1895 1900 1888 1889 1890 1891 1891 1890 1888 1901 1902 1903 1910 1911 1915 1920 1927 1936 1934 1933 1933 1941 1938 1939 1957 1982 2001 2010 2012 2014 2030 2027 2024 2030 2043 2039 2034 2044
3638 3641 3643 3650 3653 3656 3665 3672 3682 3690 3706 3710 3730 3761 3792 3838 3881 3927 3936 3956 3975 3976 3977 3968 3962 3964 3969 3973 3963 3952 3942 3897 3851 3806 3750 3694 3638 3593 3547 3501 3469 3436 3405 3374 3348 3333 3314 3292 3279 3258 3244 3213 3205 3183 3172 3116 3052 3038 3009 2970 2946 2906 2903 2873 2872 2873 2830 2827 2806 2806 2819 2815 2818 2817 2819 2817 2818 2809 2810 2790 2776 2766 2771 2778 2781 2785 2786 2791 2798 2809 2803 2792 2785 2780 2778 2776 2760 2748 2732 2722 2712 2696 2675 2654 2652 2641 2630 2628 2613 2605 2594 2583 2579 2569 2557 2559 2560 2562 2547 2539 2534 2525 2521 2513 2490 2475 2463 2450 2437 2433 2415 2407 2391 2382 2368 2366 2353 2344 2338 2326 2319 2313 2310 2308 2305 2303 2304 2300 2298 2293 2287 2285 2282 2275 2270 2237 2221 2209 2212 2194 2190 2188 2182 2177 2188 2185 2180 2187 2177 2165 2149 2135 2106 2099 2097 2094 2091 2089 2085 2071 2064 2056 2052 2055 2054 2048 2049 2045 2033 2026 2020 2014 2005 2003 1994 1973 1968 1965 1964 1958 1955 1951 1944 1944 1947 1935 1937 1933 1925 1924 1921 1916 1913 1910 1909 1909 1905 1899 1895 1892 1888 1893 1887 1887 1887 1887 1887 1890 1889 1887 1887 1888 1889 1890 1897 1906 1914 1915 1912 1924 1929 1909 1914 1933 1941 1957 1947 1941 1952 1954 1965 1976 1998 2000 2003 2007 2014
3624 3625 3629 3640 3649 3652 3660 3672 3682 3693 3705 3718 3741 3762 3790 3837 3869 3896 3929 3929 3930 3929 3928 3925 3925 3932 3939 3943 3928 3914 3899 3848 3797 3746 3688 3631 3574 3531 3488 3446 3416 3386 3358 3321 3304 3297 3272 3258 3243 3219 3194 3182 3177 3174 3114 3089 3040 3027 2972 2949 2914 2902 2873 2871 2866 2831 2829 2800 2801 2806 2809 2815 2802 2793 2784 2777 2788 2783 2772 2770 2758 2752 2751 2749 2759 2766 2768 2775 2782 2781 2784 2772 2773 2763 2758 2761 2745 2736 2722 2710 2701 2689 2657 2652 2639 2631 2620 2608 2604 2593 2581 2569 2560 2560 2555 2551 2544 2537 2527 2523 2518 2514 2504 2496 2473 2468 2459 2443 2432 2421 2411 2398 2385 2371 2363 2346 2342 2339 2332 2326 2323 2318 2313 2312 2312 2312 2305 2300 2296 2290 2285 2280 2271 2262 2232 2212 2207 2199 2190 2183 2182 2177 2176 2175 2172 2177 2179 2181 2171 2154 2144 2141 2112 2105 2104 2101 2098 2095 2091 2078 2076 2068 2057 2050 2040 2045 2038 2036 2033 2035 2023 2012 2013 2007 1999 1991 1971 1966 1964 1961 1960 1953 1944 1946 1950 1939 1935 1927 1934 1931 1928 1923 1915 1911 1908 1909 1904 1899 1895 1891 1889 1891 1891 1892 1887 1885 1883 1889 1885 1884 1883 1883 1884 1886 1889 1895 1902 1900 1900 1903 1904 1905 1906 1904 1923 1927 1921 1920 1925 1932 1941 1952 1961 1965 1975 1985 1992
3610 3615 3619 3627 3637 3649 3657 3670 3679 3689 3705 3723 3743 3760 3798 3841 3855 3878 3901 3907 3907 3906 3903 3898 3894 3898 3908 3912 3894 3875 3857 3800 3742 3685 3626 3568 3509 3469 3430 3390 3363 3335 3308 3293 3282 3268 3248 3224 3206 3190 3175 3169 3171 3109 3093 3041 3021 2974 2958 2932 2897 2857 2859 2850 2828 2825 2801 2786 2770 2766 2775 2779 2775 2771 2762 2759 2752 2753 2752 2735 2739 2738 2738 2740 2737 2746 2750 2751 2769 2776 2765 2755 2749 2741 2740 2736 2730 2714 2707 2694 2685 2666 2650 2634 2631 2617 2601 2586 2575 2570 2565 2553 2548 2543 2542 2534 2524 2513 2506 2510 2506 2501 2501 2487 2470 2456 2445 2431 2421 2411 2401 2388 2371 2366 2358 2347 2335 2338 2337 2335 2333 2325 2321 2319 2317 2310 2303 2299 2283 2273 2262 2251 2242 2220 2201 2191 2190 2188 2187 2184 2181 2179 2172 2173 2169 2173 2189 2182 2177 2154 2143 2131 2117 2106 2101 2097 2097 2104 2093 2090 2071 2063 2053 2041 2044 2037 2031 2031 2030 2035 2031 2028 2015 2009 2004 1996 1985 1975 1970 1966 1961 1954 1950 1947 1944 1939 1929 1931 1925 1926 1923 1919 1915 1914 1915 1915 1906 1898 1893 1890 1889 1889 1889 1888 1889 1882 1882 1881 1885 1882 1880 1880 1882 1883 1885 1890 1887 1889 1890 1889 1884 1889 1885 1889 1895 1905 1911 1910 1913 1916 1923 1930 1941 1943 1955 1967 1970
3603 3603 3609 3615 3627 3636 3653 3661 3671 3683 3698 3716 3733 3764 3794 3812 3842 3858 3871 3874 3876 3873 3872 3860 3861 3868 3869 3871 3846 3820 3795 3737 3679 3621 3564 3508 3451 3415 3378 3342 3317 3293 3275 3259 3247 3236 3211 3194 3172 3163 3156 3145 3105 3080 3037 2997 2971 2957 2929 2891 2863 2831 2828 2814 2804 2766 2760 2753 2754 2752 2766 2764 2765 2759 2746 2745 2746 2748 2724 2717 2719 2717 2713 2711 2710 2717 2736 2742 2746 2750 2752 2748 2742 2734 2728 2717 2715 2700 2688 2673 2658 2655 2634 2625 2605 2593 2580 2559 2561 2554 2547 2551 2537 2528 2523 2514 2504 2498 2498 2492 2499 2489 2483 2471 2459 2441 2431 2422 2412 2406 2388 2375 2368 2367 2358 2347 2340 2342 2341 2338 2334 2331 2325 2319 2305 2291 2287 2287 2271 2258 2244 2230 2217 2205 2195 2188 2186 2186 2183 2180 2177 2173 2176 2166 2171 2184 2182 2186 2174 2152 2148 2139 2115 2109 2105 2103 2131 2134 2121 2102 2084 2070 2057 2047 2043 2051 2039 2044 2039 2041 2036 2035 2029 2016 2011 2006 2003 1990 1976 1970 1968 1955 1953 1948 1943 1937 1932 1928 1924 1922 1918 1918 1915 1913 1914 1912 1903 1900 1893 1892 1888 1886 1885 1887 1892 1894 1892 1886 1884 1880 1879 1880 1882 1883 1887 1883 1882 1876 1885 1885 1874 1877 1886 1884 1873 1880 1893 1900 1902 1909 1918 1925 1931 1932 1936 1933 1928
3588 3591 3596 3601 3615 3629 3641 3652 3662 3671 3686 3701 3717 3734 3767 3795 3799 3831 3837 3840 3843 3839 3832 3831 3827 3832 3831 3829 3797 3766 3734 3675 3616 3557 3503 3448 3394 3360 3327 3293 3272 3253 3243 3220 3198 3176 3164 3155 3146 3136 3133 3101 3084 3035 2996 2938 2929 2908 2877 2859 2828 2807 2796 2765 2754 2727 2730 2727 2733 2730 2732 2731 2747 2741 2731 2733 2702 2707 2709 2702 2702 2693 2690 2688 2694 2701 2718 2722 2720 2727 2734 2734 2738 2719 2711 2682 2672 2675 2667 2651 2638 2628 2611 2600 2592 2563 2548 2543 2516 2520 2518 2531 2526 2518 2512 2501 2492 2481 2480 2476 2481 2481 2467 2459 2445 2436 2429 2419 2410 2401 2390 2378 2370 2365 2363 2356 2347 2342 2339 2336 2332 2325 2317 2297 2288 2278 2275 2262 2252 2238 2232 2226 2214 2207 2201 2198 2196 2195 2191 2185 2180 2174 2177 2175 2179 2181 2185 2184 2181 2169 2151 2151 2141 2112 2110 2151 2148 2165 2159 2119 2097 2085 2080 2074 2076 2073 2057 2056 2056 2055 2048 2041 2034 2023 2026 2027 2013 2001 1990 1975 1972 1965 1960 1948 1945 1936 1932 1923 1923 1916 1915 1915 1920 1918 1913 1906 1897 1896 1900 1891 1885 1887 1888 1891 1890 1890 1891 1875 1878 1878 1879 1878 1881 1885 1879 1878 1872 1874 1874 1876 1870 1875 1870 1870 1873 1877 1882 1888 1892 1899 1908 1916 1920 1926 1919 1923 1919
3570 3576 3581 3587 3598 3606 3618 3636 3648 3659 3673 3679 3694 3712 3733 3753 3769 3781 3790 3798 3793 3797 3793 3790 3799 3795 3792 3788 3749 3711 3672 3612 3553 3493 3441 3388 3336 3306 3275 3245 3228 3215 3194 3185 3165 3153 3142 3134 3124 3115 3095 3063 3020 2975 2935 2918 2894 2846 2847 2826 2805 2775 2755 2751 2729 2703 2701 2703 2706 2702 2720 2722 2720 2715 2709 2702 2693 2697 2692 2690 2688 2677 2674 2672 2677 2683 2689 2697 2710 2713 2719 2719 2718 2685 2683 2676 2641 2640 2637 2637 2618 2606 2598 2588 2567 2547 2537 2521 2521 2521 2514 2518 2513 2505 2496 2486 2476 2470 2466 2460 2455 2457 2451 2439 2431 2431 2421 2417 2410 2393 2383 2379 2369 2362 2356 2350 2344 2339 2334 2327 2317 2309 2298 2287 2276 2264 2254 2247 2240 2233 2231 2223 2210 2209 2203 2202 2200 2196 2190 2193 2186 2182 2184 2182 2181 2182 2184 2186 2190 2186 2172 2153 2159 2173 2175 2174 2188 2190 2175 2163 2161 2149 2128 2108 2099 2082 2075 2071 2064 2065 2060 2054 2051 2049 2046 2036 2032 2008 2004 1998 1979 1971 1962 1957 1954 1945 1936 1925 1919 1917 1917 1916 1925 1920 1915 1908 1895 1892 1899 1893 1891 1893 1891 1890 1890 1885 1878 1872 1875 1878 1879 1879 1879 1873 1872 1868 1866 1869 1872 1873 1873 1865 1871 1869 1870 1868 1869 1868 1875 1882 1887 1890 1895 1894 1896 1892 1897
3558 3568 3576 3579 3580 3584 3591 3601 3606 3638 3636 3649 3668 3686 3704 3721 3729 3737 3745 3749 3752 3751 3749 3749 3748 3741 3733 3726 3687 3647 3608 3553 3497 3442 3392 3343 3294 3265 3236 3207 3190 3170 3167 3156 3146 3127 3120 3111 3101 3090 3066 3022 2982 2945 2915 2892 2847 2848 2830 2799 2773 2756 2739 2735 2707 2694 2692 2691 2693 2694 2693 2691 2697 2699 2683 2689 2696 2689 2673 2675 2676 2666 2662 2655 2659 2663 2667 2674 2687 2685 2681 2668 2674 2663 2638 2631 2632 2639 2613 2593 2581 2576 2569 2559 2544 2535 2528 2512 2510 2506 2503 2508 2501 2496 2490 2479 2470 2460 2451 2449 2448 2444 2440 2425 2423 2428 2417 2410 2404 2393 2385 2377 2371 2366 2361 2352 2340 2332 2322 2314 2308 2297 2291 2281 2269 2260 2251 2244 2239 2237 2233 2227 2218 2214 2206 2204 2202 2195 2190 2187 2185 2186 2192 2188 2187 2181 2180 2195 2204 2210 2186 2186 2188 2185 2198 2208 2209 2207 2201 2188 2180 2181 2164 2162 2145 2151 2095 2090 2085 2084 2082 2079 2076 2070 2055 2047 2049 2046 2028 2015 2007 1985 1979 1980 1970 1956 1942 1931 1921 1915 1921 1932 1921 1920 1917 1913 1907 1901 1903 1894 1892 1892 1888 1887 1885 1881 1874 1870 1873 1876 1876 1875 1874 1879 1868 1863 1864 1869 1876 1857 1864 1859 1866 1873 1873 1871 1867 1868 1864 1866 1865 1866 1872 1875 1880 1887 1879
3550 3559 3566 3566 3568 3570 3570 3572 3568 3588 3603 3619 3636 3650 3664 3679 3686 3693 3700 3702 3705 3707 3704 3701 3698 3686 3675 3663 3624 3584 3545 3493 3442 3390 3344 3298 3252 3225 3194 3163 3152 3145 3135 3142 3115 3106 3096 3079 3069 3066 3025 2980 2962 2936 2910 2866 2845 2835 2795 2774 2759 2744 2724 2712 2699 2687 2681 2666 2667 2668 2666 2666 2673 2668 2664 2661 2662 2669 2665 2658 2650 2652 2652 2647 2641 2637 2643 2641 2637 2634 2625 2619 2625 2623 2605 2602 2604 2588 2577 2567 2564 2559 2551 2541 2530 2525 2516 2506 2502 2502 2499 2498 2486 2488 2484 2474 2462 2452 2452 2443 2437 2436 2432 2423 2417 2412 2408 2404 2397 2391 2382 2370 2367 2360 2350 2339 2331 2323 2318 2311 2301 2298 2292 2287 2273 2259 2259 2253 2247 2242 2238 2223 2222 2220 2212 2208 2203 2198 2195 2195 2197 2192 2189 2192 2193 2195 2213 2209 2247 2256 2257 2239 2239 2235 2228 2231 2240 2235 2231 2224 2216 2196 2195 2192 2188 2190 2156 2139 2126 2114 2099 2105 2112 2078 2071 2071 2047 2042 2044 2045 2029 2005 2005 1987 1984 1964 1950 1944 1927 1924 1930 1927 1930 1919 1915 1919 1912 1907 1903 1897 1894 1892 1889 1884 1879 1875 1871 1868 1867 1868 1870 1871 1870 1872 1866 1864 1860 1854 1862 1856 1856 1862 1858 1862 1871 1871 1873 1864 1858 1858 1858 1859 1863 1867 1871 1872 1865
3533 3544 3549 3548 3548 3549 3546 3539 3548 3563 3576 3590 3603 3614 3625 3636 3642 3649 3655 3658 3661 3664 3658 3653 3647 3632 3616 3601 3561 3521 3481 3434 3385 3340 3296 3253 3219 3189 3166 3139 3123 3114 3102 3093 3080 3069 3055 3042 3031 3008 2971 2957 2931 2904 2866 2835 2818 2800 2779 2759 2750 2703 2694 2692 2689 2679 2671 2658 2656 2651 2657 2653 2651 2649 2649 2637 2635 2638 2638 2642 2644 2639 2637 2635 2632 2626 2625 2620 2613 2592 2588 2589 2566 2565 2563 2556 2550 2553 2546 2540 2532 2526 2529 2522 2509 2511 2506 2498 2488 2487 2485 2481 2475 2474 2473 2469 2464 2449 2449 2443 2435 2433 2429 2425 2416 2409 2403 2397 2390 2378 2375 2361 2351 2347 2338 2333 2328 2321 2319 2313 2309 2301 2295 2292 2272 2263 2264 2255 2254 2249 2244 2234 2224 2217 2214 2211 2207 2206 2206 2210 2210 2204 2207 2208 2208 2210 2241 2270 2275 2288 2286 2288 2270 2272 2258 2255 2253 2241 2233 2226 2219 2218 2216 2211 2202 2190 2183 2154 2156 2157 2136 2137 2128 2116 2092 2079 2067 2060 2055 2051 2040 2026 2012 1998 1989 1976 1962 1949 1942 1934 1931 1925 1927 1920 1918 1916 1925 1910 1908 1902 1898 1892 1887 1880 1875 1870 1867 1864 1864 1866 1865 1868 1868 1863 1863 1855 1860 1861 1855 1856 1864 1856 1856 1861 1863 1873 1873 1868 1861 1857 1851 1851 1856 1864 1866 1867 1860
3517 3524 3523 3522 3517 3520 3527 3528 3528 3537 3555 3565 3574 3583 3591 3599 3603 3607 3610 3610 3609 3608 3602 3596 3590 3576 3562 3548 3511 3475 3438 3384 3340 3291 3261 3227 3189 3167 3135 3111 3101 3082 3073 3066 3053 3035 3018 3001 2989 2972 2941 2925 2899 2866 2805 2795 2782 2775 2754 2732 2705 2698 2671 2676 2662 2661 2664 2660 2646 2639 2636 2637 2635 2635 2630 2628 2630 2623 2624 2623 2620 2618 2619 2617 2613 2610 2606 2596 2585 2586 2574 2570 2563 2557 2549 2543 2537 2533 2528 2524 2511 2506 2501 2498 2494 2496 2491 2486 2483 2479 2476 2473 2471 2470 2469 2465 2459 2454 2452 2444 2436 2430 2425 2421 2412 2405 2394 2381 2377 2365 2359 2347 2340 2336 2332 2329 2327 2330 2320 2311 2310 2307 2301 2294 2290 2270 2262 2257 2254 2250 2247 2242 2236 2218 2216 2217 2235 2230 2224 2249 2243 2246 2258 2264 2273 2294 2288 2315 2313 2321 2325 2324 2297 2296 2290 2279 2282 2274 2268 2260 2249 2246 2242 2226 2219 2209 2195 2179 2162 2162 2152 2154 2137 2137 2137 2121 2126 2087 2077 2067 2049 2035 2021 2011 1998 1985 1971 1960 1953 1948 1943 1939 1935 1931 1926 1924 1921 1922 1915 1904 1900 1897 1892 1883 1874 1873 1867 1866 1869 1867 1868 1866 1867 1865 1859 1861 1862 1859 1852 1860 1863 1863 1863 1862 1865 1863 1865 1859 1856 1853 1848 1848 1852 1857 1862 1862 1857
3498 3504 3503 3503 3503 3505 3509 3510 3511 3513 3526 3536 3546 3551 3557 3562 3563 3564 3566 3561 3557 3552 3545 3539 3532 3520 3507 3495 3462 3429 3385 3335 3300 3266 3248 3213 3186 3134 3110 3082 3074 3049 3047 3032 3022 3008 2993 2975 2958 2945 2926 2890 2867 2809 2788 2780 2750 2746 2729 2697 2691 2670 2667 2664 2649 2648 2645 2646 2643 2636 2627 2628 2618 2620 2620 2620 2620 2614 2608 2609 2607 2607 2597 2592 2588 2587 2585 2580 2576 2572 2562 2555 2548 2544 2540 2533 2528 2522 2516 2507 2499 2489 2485 2483 2482 2482 2481 2479 2476 2476 2475 2472 2470 2469 2467 2462 2457 2452 2445 2438 2431 2424 2418 2409 2399 2390 2384 2375 2369 2365 2358 2346 2342 2339 2335 2335 2327 2325 2322 2314 2308 2305 2302 2297 2294 2273 2265 2259 2263 2254 2252 2248 2238 2235 2235 2234 2260 2288 2290 2282 2276 2286 2290 2310 2319 2317 2324 2336 2351 2358 2351 2351 2340 2324 2303 2300 2295 2287 2287 2281 2277 2267 2267 2252 2243 2234 2225 2207 2186 2176 2178 2178 2163 2165 2159 2160 2135 2120 2103 2084 2066 2048 2033 2018 2002 1993 1983 1973 1968 1962 1957 1951 1942 1936 1934 1926 1917 1916 1913 1907 1895 1889 1885 1879 1873 1870 1862 1867 1864 1867 1866 1865 1865 1863 1862 1864 1852 1859 1861 1861 1863 1862 1863 1864 1863 1864 1864 1862 1860 1853 1850 1849 1851 1855 1859 1860 1855
3488 3489 3492 3494 3497 3499 3500 3503 3505 3509 3513 3512 3520 3524 3527 3531 3534 3535 3532 3525 3504 3496 3489 3482 3475 3464 3453 3442 3420 3386 3339 3315 3290 3252 3244 3200 3163 3116 3080 3070 3052 3036 3022 3009 2999 2980 2959 2941 2914 2906 2890 2855 2822 2803 2784 2744 2741 2722 2700 2686 2674 2671 2659 2644 2645 2642 2636 2635 2623 2619 2618 2613 2604 2592 2595 2593 2587 2581 2588 2591 2594 2582 2576 2573 2572 2568 2568 2564 2557 2555 2552 2546 2540 2536 2528 2522 2517 2512 2505 2500 2493 2488 2482 2484 2482 2480 2478 2478 2476 2472 2469 2467 2464 2461 2454 2452 2448 2440 2432 2423 2416 2408 2402 2399 2393 2387 2382 2379 2370 2364 2359 2352 2341 2333 2333 2336 2333 2328 2322 2316 2309 2305 2303 2299 2300 2277 2266 2259 2260 2259 2258 2251 2247 2242 2243 2269 2282 2290 2298 2297 2319 2316 2327 2324 2331 2344 2366 2362 2360 2360 2365 2370 2356 2358 2339 2332 2318 2312 2308 2301 2290 2285 2287 2280 2269 2259 2250 2232 2213 2195 2187 2183 2177 2169 2165 2165 2158 2144 2125 2104 2083 2062 2045 2027 2010 2000 1989 1979 1974 1968 1963 1957 1950 1947 1938 1930 1924 1913 1902 1894 1886 1877 1883 1881 1878 1875 1863 1869 1865 1869 1868 1865 1864 1861 1863 1856 1858 1858 1858 1864 1866 1867 1869 1862 1864 1864 1863 1859 1857 1854 1853 1852 1854 1859 1859 1859 1853
3478 3478 3480 3485 3489 3490 3494 3499 3507 3508 3509 3506 3504 3505 3506 3511 3514 3515 3511 3506 3496 3486 3478 3470 3460 3449 3434 3416 3394 3362 3325 3295 3284 3247 3220 3161 3145 3096 3077 3055 3028 3012 2998 2984 2968 2948 2926 2912 2909 2891 2857 2815 2803 2782 2744 2737 2724 2723 2695 2685 2673 2663 2653 2640 2635 2627 2620 2623 2615 2615 2602 2591 2584 2583 2579 2577 2575 2564 2563 2562 2566 2561 2558 2555 2551 2550 2548 2546 2543 2541 2542 2537 2539 2532 2526 2520 2516 2509 2503 2499 2494 2490 2486 2484 2479 2479 2475 2472 2469 2465 2461 2457 2453 2449 2445 2440 2433 2425 2417 2412 2406 2401 2399 2396 2389 2388 2384 2382 2375 2367 2363 2350 2346 2338 2334 2333 2336 2334 2327 2318 2311 2309 2308 2306 2290 2284 2276 2270 2269 2264 2260 2264 2258 2261 2263 2321 2333 2363 2372 2366 2333 2340 2365 2372 2378 2378 2381 2395 2390 2398 2395 2390 2372 2374 2384 2383 2369 2345 2342 2339 2325 2321 2319 2311 2299 2287 2275 2255 2236 2217 2208 2199 2193 2186 2176 2176 2175 2171 2152 2138 2121 2103 2089 2075 2060 2045 2029 2013 2008 2003 1998 1986 1974 1962 1949 1936 1925 1913 1901 1890 1879 1880 1874 1875 1884 1887 1882 1879 1873 1867 1859 1864 1863 1849 1849 1851 1852 1861 1861 1860 1865 1873 1871 1866 1868 1861 1862 1862 1860 1857 1859 1862 1866 1867 1863 1857 1854
3466 3471 3476 3481 3487 3493 3497 3500 3507 3509 3507 3505 3499 3499 3503 3507 3511 3518 3513 3508 3491 3478 3472 3467 3459 3435 3421 3402 3379 3347 3312 3300 3280 3244 3204 3166 3117 3079 3056 3032 3010 2995 2976 2955 2944 2920 2906 2897 2890 2845 2830 2801 2786 2760 2731 2724 2716 2698 2685 2673 2661 2655 2645 2636 2624 2614 2610 2615 2601 2600 2590 2579 2586 2574 2570 2567 2565 2555 2553 2550 2548 2548 2544 2544 2544 2542 2535 2532 2531 2531 2531 2535 2530 2525 2519 2514 2509 2504 2500 2497 2496 2492 2486 2480 2473 2471 2469 2465 2459 2455 2450 2445 2442 2438 2435 2433 2429 2422 2416 2410 2406 2401 2397 2392 2389 2383 2382 2380 2382 2372 2367 2358 2342 2341 2337 2338 2336 2334 2331 2326 2321 2317 2315 2301 2289 2284 2291 2291 2294 2278 2274 2274 2281 2297 2331 2384 2402 2408 2417 2415 2406 2410 2409 2411 2413 2413 2424 2428 2420 2423 2426 2428 2433 2421 2432 2432 2431 2425 2376 2368 2360 2358 2351 2344 2329 2314 2299 2279 2259 2239 2233 2227 2222 2210 2198 2180 2183 2175 2171 2163 2156 2146 2135 2122 2111 2090 2069 2048 2043 2038 2034 2016 1998 1980 1961 1942 1924 1918 1904 1891 1885 1882 1879 1880 1882 1886 1883 1878 1874 1867 1859 1861 1854 1849 1847 1848 1850 1851 1855 1860 1857 1869 1866 1864 1864 1859 1859 1863 1856 1866 1871 1875 1878 1873 1865 1857 1851
3442 3452 3464 3475 3485 3491 3495 3501 3499 3502 3500 3502 3500 3499 3503 3511 3516 3519 3513 3510 3508 3496 3478 3475 3455 3432 3417 3395 3376 3344 3314 3286 3266 3234 3199 3153 3101 3075 3040 3020 3001 2983 2953 2930 2916 2904 2897 2875 2841 2830 2799 2794 2771 2732 2719 2714 2698 2684 2674 2653 2648 2647 2637 2630 2623 2616 2610 2605 2603 2597 2589 2583 2571 2567 2561 2558 2555 2547 2545 2539 2538 2535 2535 2534 2531 2529 2528 2523 2519 2517 2515 2518 2519 2514 2506 2503 2505 2501 2497 2494 2492 2489 2483 2475 2469 2463 2459 2456 2455 2450 2449 2447 2439 2434 2434 2432 2428 2422 2416 2412 2409 2404 2401 2391 2389 2383 2386 2384 2382 2380 2372 2366 2355 2347 2343 2342 2341 2338 2336 2331 2328 2316 2320 2309 2297 2293 2294 2296 2302 2299 2297 2298 2315 2338 2379 2404 2416 2460 2462 2447 2454 2437 2434 2433 2435 2457 2467 2462 2461 2458 2460 2460 2459 2453 2457 2453 2449 2441 2425 2402 2395 2389 2383 2377 2359 2342 2324 2303 2282 2261 2258 2256 2253 2242 2231 2209 2185 2179 2185 2187 2182 2183 2167 2157 2145 2135 2108 2082 2078 2073 2069 2045 2022 1998 1974 1949 1945 1918 1912 1904 1892 1879 1879 1881 1882 1884 1883 1881 1877 1864 1865 1868 1855 1848 1847 1845 1847 1850 1854 1855 1855 1860 1856 1862 1857 1856 1856 1852 1861 1872 1879 1878 1885 1872 1858 1856 1843
3416 3433 3446 3463 3476 3477 3485 3479 3480 3492 3501 3502 3509 3508 3511 3513 3519 3523 3520 3520 3514 3505 3492 3479 3460 3434 3420 3396 3373 3345 3325 3289 3262 3229 3178 3137 3101 3069 3044 3014 2994 2965 2930 2908 2898 2877 2854 2847 2826 2807 2791 2778 2732 2728 2713 2701 2687 2675 2653 2656 2649 2638 2628 2618 2614 2608 2600 2598 2596 2596 2588 2579 2569 2562 2557 2554 2551 2552 2542 2537 2531 2529 2527 2525 2523 2524 2521 2517 2514 2510 2507 2506 2500 2496 2493 2492 2492 2491 2488 2488 2485 2477 2466 2463 2457 2453 2451 2448 2446 2443 2444 2441 2437 2433 2431 2429 2424 2419 2416 2410 2407 2404 2402 2402 2395 2392 2385 2382 2381 2384 2379 2372 2368 2364 2358 2359 2348 2342 2340 2342 2334 2334 2330 2318 2314 2312 2318 2321 2316 2314 2322 2328 2347 2378 2427 2456 2461 2480 2488 2490 2467 2454 2437 2438 2458 2474 2478 2482 2485 2494 2490 2489 2496 2477 2472 2465 2461 2460 2444 2428 2418 2413 2408 2404 2389 2375 2361 2345 2328 2312 2305 2298 2291 2279 2260 2244 2222 2226 2207 2198 2193 2183 2190 2174 2175 2173 2155 2138 2129 2119 2110 2087 2064 2042 2021 2000 1979 1960 1942 1923 1907 1896 1888 1886 1885 1884 1883 1881 1880 1879 1868 1871 1869 1848 1848 1848 1848 1854 1859 1849 1859 1852 1854 1853 1857 1854 1853 1847 1847 1874 1876 1879 1882 1873 1859 1855 1849
3390 3407 3424 3438 3449 3456 3468 3468 3473 3483 3500 3510 3521 3527 3524 3522 3520 3519 3526 3531 3523 3520 3499 3477 3450 3429 3420 3404 3378 3362 3349 3308 3290 3236 3179 3133 3094 3075 3042 3004 2992 2945 2911 2899 2874 2855 2837 2822 2812 2797 2777 2738 2724 2707 2695 2684 2675 2665 2653 2659 2649 2633 2626 2618 2620 2606 2599 2596 2592 2585 2584 2582 2575 2565 2559 2556 2549 2551 2551 2542 2532 2530 2527 2523 2521 2518 2519 2513 2507 2505 2498 2493 2489 2487 2481 2477 2475 2476 2474 2471 2464 2458 2453 2449 2446 2442 2442 2442 2439 2435 2433 2430 2432 2429 2426 2426 2423 2419 2413 2407 2403 2406 2404 2403 2401 2396 2392 2383 2386 2382 2378 2377 2373 2370 2362 2358 2353 2351 2348 2359 2360 2342 2346 2348 2361 2359 2366 2353 2315 2322 2400 2401 2441 2442 2470 2495 2540 2546 2544 2540 2518 2504 2502 2493 2497 2483 2499 2520 2531 2531 2530 2526 2516 2508 2492 2477 2479 2478 2466 2449 2441 2437 2434 2430 2420 2409 2398 2386 2375 2363 2352 2341 2330 2315 2301 2281 2275 2250 2247 2228 2223 2222 2214 2213 2219 2224 2199 2194 2180 2165 2151 2129 2107 2085 2068 2050 2032 2002 1972 1942 1927 1913 1898 1894 1891 1887 1885 1883 1881 1879 1877 1868 1863 1859 1856 1858 1854 1851 1853 1852 1855 1859 1855 1853 1854 1848 1847 1847 1851 1864 1879 1873 1872 1864 1865 1864 1857
3382 3387 3399 3413 3421 3425 3439 3454 3461 3479 3504 3516 3526 3534 3537 3533 3528 3529 3529 3532 3524 3517 3505 3476 3449 3424 3409 3394 3375 3359 3351 3311 3290 3239 3184 3143 3114 3087 3041 3000 2970 2926 2908 2884 2855 2843 2827 2818 2798 2793 2764 2733 2725 2712 2689 2679 2674 2660 2666 2651 2642 2632 2622 2613 2605 2602 2599 2594 2590 2585 2581 2582 2574 2566 2563 2556 2549 2546 2544 2534 2530 2531 2528 2525 2522 2521 2510 2510 2504 2499 2496 2491 2490 2483 2478 2475 2474 2473 2471 2468 2463 2457 2452 2448 2446 2446 2447 2446 2441 2435 2431 2427 2429 2428 2425 2424 2423 2418 2413 2403 2405 2405 2405 2405 2407 2397 2394 2389 2391 2386 2385 2384 2383 2377 2368 2368 2365 2363 2395 2400 2400 2397 2400 2399 2395 2398 2393 2419 2415 2479 2473 2486 2486 2494 2508 2538 2578 2592 2589 2584 2542 2534 2521 2523 2514 2536 2541 2538 2539 2536 2559 2561 2551 2539 2511 2498 2498 2492 2482 2477 2464 2462 2459 2457 2450 2442 2435 2428 2421 2414 2399 2383 2368 2352 2336 2320 2297 2281 2265 2271 2264 2259 2250 2248 2249 2245 2230 2218 2207 2211 2183 2171 2150 2129 2115 2100 2086 2044 2002 1960 1941 1921 1902 1897 1893 1888 1885 1882 1879 1877 1876 1878 1886 1872 1858 1854 1853 1850 1850 1852 1857 1861 1858 1848 1845 1845 1845 1847 1850 1855 1860 1866 1864 1865 1863 1864 1861
3372 3379 3385 3390 3399 3405 3410 3422 3438 3462 3483 3503 3523 3528 3537 3536 3537 3531 3530 3529 3531 3519 3500 3473 3432 3407 3395 3386 3374 3365 3347 3304 3293 3245 3193 3167 3123 3106 3042 3001 2974 2926 2903 2885 2854 2839 2827 2815 2805 2786 2761 2747 2723 2711 2687 2677 2668 2664 2660 2650 2639 2630 2620 2611 2603 2596 2597 2598 2591 2581 2575 2570 2567 2566 2561 2560 2552 2544 2536 2534 2530 2533 2528 2528 2519 2515 2509 2503 2498 2495 2489 2490 2483 2479 2477 2474 2472 2471 2469 2467 2463 2458 2453 2449 2447 2447 2444 2444 2441 2438 2430 2426 2428 2425 2422 2422 2417 2414 2411 2410 2407 2409 2412 2409 2406 2403 2394 2392 2389 2390 2391 2390 2392 2382 2378 2387 2396 2391 2391 2398 2399 2399 2400 2453 2464 2472 2484 2489 2490 2493 2510 2504 2501 2537 2560 2596 2607 2609 2616 2618 2587 2561 2559 2562 2547 2562 2569 2562 2572 2572 2578 2590 2585 2577 2557 2541 2531 2506 2500 2507 2493 2494 2494 2495 2491 2487 2483 2475 2467 2459 2439 2419 2398 2379 2359 2337 2323 2310 2299 2290 2275 2261 2259 2269 2271 2263 2250 2237 2225 2219 2204 2197 2180 2168 2153 2139 2125 2091 2057 2023 2003 1983 1963 1950 1937 1923 1912 1901 1890 1886 1882 1878 1882 1880 1867 1856 1855 1855 1854 1853 1857 1857 1855 1852 1842 1844 1847 1849 1852 1851 1855 1859 1863 1864 1860 1860 1861
3354 3363 3369 3377 3381 3388 3396 3404 3416 3435 3453 3487 3499 3514 3514 3533 3528 3534 3532 3532 3524 3501 3487 3441 3399 3395 3386 3379 3372 3357 3340 3311 3291 3256 3221 3188 3163 3118 3082 3006 2980 2940 2917 2888 2860 2843 2823 2814 2799 2791 2770 2752 2724 2717 2700 2674 2666 2659 2655 2647 2639 2628 2620 2613 2606 2600 2598 2592 2582 2576 2574 2570 2562 2564 2566 2558 2551 2547 2542 2538 2536 2539 2530 2526 2524 2515 2498 2497 2498 2489 2486 2480 2478 2474 2474 2472 2469 2466 2465 2464 2461 2458 2453 2449 2444 2444 2446 2446 2445 2441 2437 2431 2426 2422 2419 2418 2417 2415 2413 2406 2411 2418 2418 2408 2407 2398 2394 2394 2397 2399 2395 2393 2391 2388 2391 2396 2405 2398 2399 2400 2402 2445 2452 2465 2495 2500 2522 2515 2522 2535 2544 2557 2579 2628 2643 2650 2651 2649 2628 2626 2632 2580 2579 2589 2605 2615 2599 2601 2616 2601 2601 2601 2601 2605 2609 2591 2576 2549 2556 2554 2521 2525 2530 2534 2533 2532 2531 2522 2513 2504 2479 2454 2429 2406 2383 2354 2330 2324 2327 2313 2299 2296 2299 2281 2285 2276 2270 2252 2242 2234 2227 2225 2212 2204 2190 2178 2164 2138 2112 2085 2065 2045 2025 2003 1981 1959 1940 1921 1902 1895 1889 1882 1883 1881 1876 1869 1861 1858 1855 1853 1853 1858 1862 1853 1848 1846 1847 1849 1848 1846 1848 1861 1860 1853 1853 1854 1850
3349 3356 3368 3366 3366 3363 3368 3378 3385 3399 3411 3422 3430 3441 3490 3501 3507 3519 3526 3526 3507 3494 3463 3401 3397 3386 3376 3372 3361 3342 3327 3298 3286 3276 3238 3209 3190 3147 3094 3045 2991 2950 2915 2899 2884 2849 2827 2809 2791 2777 2776 2752 2732 2710 2703 2695 2672 2657 2653 2645 2636 2627 2617 2611 2604 2604 2598 2587 2581 2575 2570 2571 2571 2567 2561 2559 2551 2540 2541 2538 2538 2532 2524 2525 2522 2516 2503 2505 2502 2493 2484 2476 2469 2466 2472 2470 2468 2466 2464 2463 2461 2455 2449 2446 2444 2444 2442 2443 2444 2437 2432 2434 2433 2428 2433 2426 2421 2419 2418 2410 2415 2419 2418 2414 2410 2398 2397 2397 2400 2406 2401 2401 2404 2408 2428 2440 2434 2434 2433 2434 2454 2473 2490 2506 2533 2531 2530 2554 2579 2638 2649 2653 2650 2683 2692 2693 2696 2714 2710 2715 2721 2681 2677 2660 2661 2656 2663 2669 2675 2669 2685 2672 2696 2692 2657 2657 2622 2611 2607 2617 2601 2557 2565 2572 2574 2577 2579 2569 2559 2549 2519 2489 2459 2433 2406 2372 2350 2353 2344 2347 2331 2330 2317 2308 2305 2299 2277 2271 2262 2257 2253 2249 2246 2236 2223 2217 2203 2185 2166 2148 2127 2107 2086 2055 2025 1994 1967 1940 1913 1904 1895 1886 1887 1887 1883 1879 1875 1872 1865 1860 1856 1858 1846 1843 1851 1852 1849 1849 1850 1855 1858 1857 1854 1843 1847 1848 1848
3341 3349 3353 3352 3353 3355 3359 3362 3366 3377 3396 3407 3417 3431 3436 3480 3489 3509 3514 3501 3496 3486 3422 3400 3382 3371 3372 3354 3343 3324 3306 3301 3292 3276 3244 3236 3193 3148 3110 3069 3019 2957 2931 2910 2898 2878 2851 2809 2793 2781 2772 2761 2737 2720 2707 2696 2686 2669 2660 2647 2631 2624 2622 2615 2604 2597 2594 2585 2584 2573 2576 2571 2567 2562 2562 2553 2545 2543 2535 2544 2530 2520 2520 2516 2509 2509 2503 2500 2498 2490 2481 2481 2468 2471 2475 2476 2472 2471 2470 2467 2462 2455 2450 2447 2442 2442 2442 2440 2435 2433 2435 2433 2434 2432 2430 2427 2423 2421 2420 2417 2419 2422 2424 2423 2415 2405 2407 2406 2409 2414 2407 2412 2432 2456 2463 2461 2469 2480 2473 2484 2485 2517 2536 2562 2581 2604 2611 2616 2694 2702 2709 2707 2723 2730 2736 2736 2742 2747 2749 2751 2756 2714 2714 2750 2716 2703 2699 2710 2756 2747 2741 2723 2734 2728 2709 2680 2663 2660 2676 2672 2669 2653 2647 2649 2652 2648 2633 2611 2588 2574 2540 2507 2473 2446 2416 2388 2372 2367 2368 2369 2363 2368 2344 2338 2329 2309 2299 2295 2292 2293 2294 2284 2276 2269 2253 2236 2220 2205 2190 2175 2154 2133 2111 2090 2068 2047 2014 1982 1949 1933 1916 1900 1900 1899 1894 1890 1888 1889 1868 1863 1857 1848 1844 1840 1841 1844 1850 1848 1849 1851 1852 1850 1848 1847 1843 1848 1849
3325 3333 3334 3335 3340 3340 3346 3352 3360 3369 3379 3389 3389 3408 3419 3439 3454 3477 3492 3498 3497 3493 3420 3404 3385 3375 3364 3354 3339 3323 3302 3294 3292 3275 3247 3231 3196 3162 3123 3072 3034 2956 2937 2925 2918 2905 2896 2851 2803 2785 2781 2771 2754 2728 2712 2697 2690 2670 2660 2645 2633 2623 2616 2609 2606 2597 2591 2586 2586 2579 2577 2574 2568 2563 2557 2555 2548 2542 2538 2526 2528 2518 2517 2512 2504 2506 2505 2497 2498 2486 2482 2484 2478 2471 2472 2479 2476 2475 2473 2469 2463 2459 2456 2454 2454 2456 2450 2446 2442 2438 2433 2435 2431 2429 2427 2427 2426 2425 2427 2420 2422 2424 2424 2423 2421 2419 2411 2411 2431 2438 2447 2462 2459 2468 2475 2489 2502 2512 2532 2535 2573 2568 2594 2601 2620 2649 2653 2691 2699 2720 2757 2763 2767 2800 2794 2782 2781 2780 2795 2810 2827 2851 2860 2858 2855 2861 2859 2863 2859 2854 2813 2799 2774 2769 2737 2716 2720 2724 2720 2715 2716 2709 2704 2716 2709 2715 2681 2658 2621 2598 2561 2512 2476 2452 2430 2417 2382 2386 2387 2389 2381 2362 2367 2348 2340 2332 2325 2323 2324 2322 2320 2313 2303 2294 2275 2256 2237 2225 2214 2202 2180 2158 2137 2124 2112 2099 2061 2023 1985 1961 1938 1914 1912 1911 1909 1907 1900 1898 1892 1876 1863 1853 1851 1846 1843 1842 1842 1846 1845 1848 1849 1848 1846 1846 1847 1848 1846
3311 3315 3319 3323 3325 3328 3330 3336 3346 3354 3371 3375 3386 3394 3404 3418 3434 3455 3479 3498 3502 3494 3479 3423 3405 3376 3367 3353 3338 3325 3313 3303 3286 3271 3250 3224 3206 3165 3123 3081 3056 3000 2963 2937 2939 2926 2903 2902 2853 2810 2783 2779 2765 2753 2731 2716 2693 2681 2665 2649 2644 2629 2620 2615 2607 2602 2590 2591 2590 2588 2587 2580 2574 2567 2562 2556 2546 2538 2533 2529 2524 2524 2520 2515 2509 2506 2504 2504 2494 2495 2489 2483 2482 2477 2478 2478 2475 2474 2473 2472 2468 2464 2461 2458 2459 2461 2463 2459 2455 2446 2442 2440 2436 2432 2428 2432 2428 2425 2429 2420 2426 2423 2426 2426 2426 2422 2419 2430 2437 2452 2461 2474 2477 2488 2486 2521 2530 2558 2559 2609 2602 2625 2629 2634 2684 2696 2699 2696 2757 2780 2782 2819 2816 2814 2820 2825 2826 2834 2829 2849 2869 2867 2872 2873 2867 2862 2880 2881 2882 2868 2860 2830 2808 2801 2787 2755 2751 2759 2764 2751 2749 2745 2751 2776 2769 2766 2717 2688 2664 2610 2563 2518 2487 2460 2450 2436 2415 2420 2426 2405 2388 2379 2375 2359 2358 2350 2350 2351 2349 2354 2350 2343 2331 2318 2297 2275 2254 2246 2237 2229 2207 2184 2162 2159 2155 2152 2108 2065 2021 1990 1959 1928 1925 1923 1920 1917 1914 1916 1910 1892 1880 1874 1867 1858 1852 1847 1844 1846 1843 1845 1845 1845 1844 1847 1850 1851 1849
3301 3307 3308 3305 3309 3307 3312 3324 3337 3350 3356 3367 3375 3386 3401 3417 3430 3450 3472 3491 3503 3496 3478 3456 3418 3399 3382 3366 3346 3333 3320 3319 3306 3269 3248 3230 3212 3178 3136 3116 3081 3037 3001 2960 2945 2942 2922 2904 2871 2842 2818 2807 2781 2763 2755 2725 2707 2691 2682 2660 2644 2637 2626 2618 2614 2612 2606 2600 2603 2601 2595 2588 2582 2578 2574 2569 2557 2554 2543 2535 2533 2535 2530 2530 2527 2526 2518 2509 2499 2491 2491 2485 2480 2477 2478 2477 2475 2474 2474 2475 2474 2473 2472 2469 2467 2465 2463 2461 2455 2448 2444 2443 2443 2443 2442 2442 2441 2440 2432 2425 2422 2424 2422 2426 2426 2425 2430 2432 2441 2455 2471 2473 2482 2495 2519 2529 2553 2570 2610 2612 2624 2637 2642 2689 2691 2704 2709 2754 2776 2803 2826 2829 2838 2851 2849 2853 2861 2866 2881 2885 2894 2894 2895 2904 2906 2910 2898 2893 2892 2892 2872 2864 2838 2835 2818 2798 2792 2791 2796 2791 2799 2806 2780 2775 2781 2772 2759 2712 2667 2621 2579 2513 2490 2481 2479 2463 2449 2440 2435 2423 2409 2399 2398 2376 2365 2370 2372 2377 2382 2376 2382 2384 2370 2357 2336 2316 2295 2279 2263 2247 2229 2211 2193 2188 2183 2177 2145 2112 2080 2051 2023 1994 1984 1974 1964 1952 1944 1935 1922 1911 1903 1896 1885 1873 1851 1853 1848 1849 1849 1845 1846 1842 1841 1843 1842 1842 1847
3291 3292 3301 3298 3297 3299 3306 3316 3327 3341 3346 3352 3361 3383 3401 3421 3436 3454 3475 3494 3505 3501 3480 3459 3450 3412 3387 3366 3354 3341 3331 3323 3311 3273 3250 3223 3195 3178 3145 3119 3088 3074 3027 2994 2976 2960 2941 2908 2892 2868 2841 2824 2804 2789 2762 2755 2724 2711 2692 2696 2667 2668 2663 2646 2631 2620 2612 2615 2612 2608 2602 2597 2591 2586 2582 2578 2571 2561 2558 2571 2564 2561 2555 2540 2533 2540 2533 2520 2506 2493 2486 2483 2478 2474 2474 2472 2471 2471 2471 2472 2473 2476 2477 2475 2473 2471 2467 2461 2455 2448 2449 2444 2442 2442 2443 2443 2443 2442 2434 2430 2426 2423 2420 2424 2428 2429 2432 2434 2440 2452 2477 2483 2491 2513 2532 2556 2566 2596 2603 2616 2633 2641 2667 2683 2696 2716 2746 2765 2804 2812 2824 2839 2849 2858 2866 2876 2886 2892 2899 2903 2909 2914 2911 2911 2913 2914 2915 2909 2903 2896 2887 2873 2861 2849 2832 2824 2818 2821 2823 2823 2829 2808 2800 2787 2776 2767 2755 2717 2667 2619 2584 2540 2494 2489 2484 2486 2479 2456 2437 2429 2419 2409 2402 2395 2395 2393 2400 2416 2412 2414 2417 2411 2410 2397 2376 2356 2335 2312 2288 2264 2251 2237 2224 2217 2210 2203 2172 2160 2139 2113 2087 2061 2043 2026 2009 1990 1965 1944 1942 1932 1926 1922 1915 1905 1891 1871 1862 1855 1848 1845 1843 1839 1842 1845 1838 1838 1844
3279 3281 3285 3284 3284 3289 3292 3306 3318 3331 3336 3342 3364 3387 3404 3423 3446 3462 3486 3500 3508 3502 3488 3471 3458 3431 3389 3372 3356 3353 3344 3331 3317 3284 3264 3223 3197 3181 3158 3124 3104 3089 3047 3012 2991 2987 2964 2934 2905 2896 2875 2847 2817 2797 2788 2778 2753 2736 2725 2713 2709 2710 2702 2671 2649 2634 2628 2624 2620 2616 2610 2605 2599 2595 2590 2586 2578 2570 2578 2579 2577 2570 2569 2559 2544 2541 2537 2534 2528 2511 2507 2498 2484 2477 2472 2468 2477 2473 2471 2472 2472 2476 2477 2474 2472 2463 2460 2453 2450 2448 2447 2448 2449 2448 2446 2444 2443 2440 2436 2428 2427 2425 2427 2432 2434 2432 2433 2436 2443 2454 2470 2485 2497 2518 2555 2571 2587 2601 2612 2626 2640 2652 2665 2678 2694 2713 2756 2775 2798 2808 2822 2837 2853 2863 2873 2881 2888 2892 2899 2906 2910 2915 2920 2920 2924 2925 2926 2924 2908 2906 2899 2887 2873 2857 2856 2855 2849 2844 2843 2834 2827 2825 2809 2786 2772 2762 2736 2716 2674 2620 2589 2545 2499 2506 2510 2499 2489 2475 2453 2443 2430 2430 2433 2417 2423 2422 2430 2453 2449 2453 2450 2438 2430 2419 2405 2396 2376 2345 2313 2282 2273 2264 2255 2246 2237 2211 2189 2178 2167 2174 2151 2127 2102 2078 2053 2022 1991 1960 1954 1960 1962 1954 1945 1934 1926 1912 1882 1858 1852 1845 1840 1838 1843 1844 1844 1845 1846
3265 3267 3269 3270 3276 3282 3285 3294 3310 3314 3325 3341 3354 3388 3408 3427 3455 3475 3494 3502 3505 3500 3496 3488 3477 3456 3412 3376 3360 3355 3347 3331 3317 3289 3264 3232 3199 3185 3163 3142 3114 3106 3069 3047 3015 3008 2988 2966 2940 2916 2911 2893 2864 2822 2809 2798 2794 2789 2781 2766 2757 2751 2727 2702 2672 2656 2650 2646 2643 2639 2636 2632 2629 2626 2623 2621 2613 2605 2598 2602 2608 2609 2585 2588 2570 2556 2554 2561 2557 2547 2528 2522 2501 2490 2483 2479 2478 2475 2470 2469 2467 2472 2467 2464 2456 2458 2455 2448 2443 2445 2444 2445 2446 2446 2446 2443 2441 2438 2435 2433 2430 2434 2435 2440 2443 2445 2443 2449 2452 2460 2475 2501 2512 2524 2551 2573 2590 2607 2616 2634 2645 2657 2668 2681 2697 2720 2750 2769 2781 2801 2822 2837 2849 2859 2865 2873 2881 2885 2889 2896 2902 2910 2913 2920 2928 2933 2935 2936 2935 2919 2912 2896 2881 2875 2876 2867 2863 2856 2849 2836 2828 2825 2803 2779 2759 2731 2718 2689 2656 2610 2580 2561 2510 2511 2508 2513 2499 2485 2470 2461 2445 2444 2454 2455 2453 2452 2456 2472 2476 2470 2471 2456 2447 2443 2427 2411 2395 2375 2352 2325 2311 2297 2282 2269 2245 2223 2202 2189 2187 2177 2162 2142 2118 2095 2071 2045 2019 1994 1984 1984 1978 1976 1968 1965 1941 1921 1906 1883 1878 1861 1855 1846 1844 1845 1847 1848 1844
3245 3249 3253 3259 3266 3273 3278 3287 3300 3306 3315 3327 3349 3386 3410 3437 3464 3482 3499 3507 3509 3505 3504 3502 3488 3477 3424 3389 3374 3354 3342 3325 3311 3289 3256 3226 3204 3196 3174 3145 3143 3121 3090 3070 3056 3038 3020 3002 2984 2963 2948 2927 2895 2864 2848 2806 2801 2799 2795 2789 2792 2773 2744 2717 2685 2678 2672 2669 2666 2663 2661 2660 2659 2658 2657 2655 2648 2641 2633 2633 2623 2629 2623 2623 2635 2634 2613 2597 2569 2563 2560 2540 2519 2513 2504 2497 2491 2488 2483 2483 2478 2471 2464 2460 2459 2461 2456 2452 2449 2446 2446 2445 2446 2448 2447 2445 2443 2441 2438 2437 2439 2442 2445 2449 2452 2455 2458 2460 2464 2469 2485 2506 2518 2537 2545 2576 2592 2614 2631 2649 2657 2668 2686 2702 2719 2736 2754 2773 2787 2806 2822 2838 2847 2854 2863 2870 2879 2887 2889 2896 2903 2910 2918 2926 2934 2938 2943 2947 2943 2940 2926 2907 2897 2885 2873 2870 2868 2863 2849 2835 2824 2812 2792 2772 2740 2719 2694 2675 2647 2608 2585 2553 2525 2515 2509 2509 2513 2509 2490 2478 2478 2474 2477 2479 2473 2474 2479 2483 2491 2492 2481 2476 2459 2459 2431 2418 2417 2401 2380 2362 2349 2329 2310 2287 2258 2226 2197 2195 2191 2186 2171 2157 2134 2112 2089 2068 2048 2027 2014 2008 2001 1995 1985 1972 1961 1934 1914 1903 1908 1891 1866 1852 1845 1844 1849 1847 1845
3228 3232 3242 3249 3258 3268 3270 3277 3287 3300 3306 3322 3355 3389 3415 3446 3468 3485 3498 3506 3513 3518 3519 3513 3507 3478 3450 3410 3368 3346 3329 3320 3310 3286 3253 3223 3204 3200 3180 3169 3151 3146 3109 3095 3081 3064 3046 3027 3007 2998 2960 2943 2927 2912 2888 2856 2844 2816 2810 2812 2795 2793 2776 2741 2707 2700 2694 2691 2689 2686 2687 2688 2689 2689 2690 2690 2683 2676 2669 2669 2674 2674 2679 2673 2669 2671 2659 2635 2620 2590 2573 2554 2550 2558 2554 2546 2549 2544 2523 2517 2509 2503 2483 2477 2472 2468 2463 2460 2462 2461 2459 2456 2452 2452 2452 2450 2449 2448 2448 2450 2452 2456 2461 2469 2472 2475 2470 2468 2470 2481 2497 2513 2523 2541 2562 2586 2608 2626 2640 2658 2671 2689 2711 2722 2735 2753 2764 2777 2795 2809 2823 2837 2846 2852 2859 2866 2875 2883 2894 2904 2913 2921 2929 2937 2946 2955 2960 2963 2962 2963 2945 2934 2915 2892 2882 2869 2866 2854 2838 2830 2818 2801 2786 2760 2725 2694 2686 2665 2647 2610 2584 2555 2547 2531 2513 2513 2515 2514 2506 2502 2499 2496 2492 2495 2500 2505 2509 2513 2520 2501 2499 2490 2490 2464 2452 2435 2424 2414 2406 2380 2376 2359 2336 2302 2283 2244 2228 2197 2194 2189 2175 2162 2145 2125 2107 2092 2076 2061 2043 2028 2017 2006 1994 1978 1959 1931 1916 1906 1905 1911 1887 1877 1866 1857 1851 1850 1849
3208 3222 3231 3244 3252 3258 3265 3276 3278 3287 3295 3323 3361 3399 3424 3449 3468 3474 3489 3505 3519 3525 3522 3520 3501 3484 3455 3425 3364 3348 3333 3328 3313 3291 3270 3237 3223 3204 3193 3187 3175 3152 3137 3105 3089 3078 3061 3043 3016 3004 2992 2961 2954 2943 2916 2890 2850 2856 2855 2842 2831 2833 2799 2761 2754 2747 2740 2737 2734 2730 2732 2734 2736 2736 2737 2738 2730 2723 2715 2704 2705 2701 2685 2679 2703 2705 2692 2677 2659 2652 2626 2630 2615 2604 2594 2575 2562 2555 2557 2540 2523 2517 2509 2495 2492 2481 2476 2475 2479 2475 2472 2469 2464 2465 2461 2463 2464 2466 2464 2465 2467 2471 2474 2480 2481 2483 2478 2478 2483 2495 2509 2525 2541 2556 2574 2595 2616 2631 2645 2664 2692 2706 2721 2733 2748 2767 2780 2793 2802 2814 2824 2833 2843 2849 2857 2870 2873 2882 2896 2913 2924 2931 2939 2953 2963 2970 2976 2978 2982 2969 2965 2938 2931 2913 2892 2875 2869 2852 2830 2818 2825 2798 2780 2763 2725 2701 2681 2662 2651 2614 2589 2563 2553 2541 2531 2525 2522 2519 2522 2510 2510 2513 2514 2516 2515 2521 2517 2525 2530 2534 2521 2510 2495 2484 2461 2447 2440 2427 2413 2407 2405 2387 2359 2341 2298 2287 2247 2224 2196 2190 2174 2166 2153 2134 2112 2106 2101 2095 2068 2045 2015 2012 2000 1978 1959 1940 1922 1914 1906 1904 1893 1892 1887 1884 1885 1881 1875
3200 3212 3226 3235 3244 3252 3265 3276 3277 3283 3300 3323 3359 3404 3435 3449 3461 3474 3491 3508 3521 3528 3522 3518 3501 3488 3449 3428 3394 3362 3345 3337 3324 3306 3280 3246 3230 3216 3206 3199 3192 3180 3161 3136 3121 3107 3075 3056 3038 3014 3013 3006 2988 2967 2943 2923 2907 2902 2891 2896 2891 2866 2836 2810 2802 2794 2786 2782 2778 2775 2777 2780 2782 2784 2785 2786 2778 2770 2762 2749 2741 2732 2731 2743 2736 2731 2751 2748 2727 2724 2676 2656 2650 2641 2638 2604 2571 2578 2568 2570 2541 2536 2539 2538 2522 2512 2508 2502 2497 2483 2476 2475 2475 2478 2478 2477 2480 2482 2486 2489 2485 2485 2486 2487 2490 2490 2493 2498 2507 2515 2524 2534 2551 2570 2583 2599 2618 2639 2652 2679 2694 2710 2731 2747 2757 2773 2787 2801 2809 2822 2832 2839 2846 2854 2859 2871 2876 2890 2908 2925 2934 2940 2955 2967 2976 2979 2986 2988 2991 2984 2980 2968 2952 2937 2897 2887 2870 2857 2834 2824 2802 2792 2781 2768 2734 2699 2679 2662 2644 2618 2606 2581 2568 2559 2551 2545 2541 2538 2535 2523 2525 2526 2530 2532 2529 2527 2538 2553 2569 2568 2561 2528 2506 2486 2472 2456 2447 2442 2421 2413 2408 2409 2386 2361 2352 2310 2288 2247 2226 2200 2196 2177 2160 2139 2130 2121 2125 2113 2092 2059 2026 2015 2004 1993 1971 1949 1927 1921 1915 1909 1905 1901 1896 1896 1899 1899 1885
3203 3214 3224 3235 3240 3249 3265 3275 3281 3288 3305 3336 3364 3403 3439 3453 3470 3482 3496 3509 3521 3527 3520 3514 3503 3482 3459 3431 3404 3378 3363 3351 3338 3323 3308 3272 3242 3241 3237 3230 3221 3221 3187 3159 3156 3121 3111 3072 3056 3032 3012 3011 3022 2996 2968 2957 2943 2924 2929 2909 2914 2908 2877 2858 2849 2841 2832 2828 2823 2819 2822 2826 2829 2831 2832 2834 2825 2817 2808 2795 2779 2774 2774 2755 2750 2757 2754 2770 2766 2753 2728 2703 2691 2680 2672 2678 2598 2597 2593 2576 2567 2550 2537 2543 2535 2536 2538 2532 2520 2510 2493 2486 2486 2487 2484 2486 2488 2493 2499 2502 2501 2498 2494 2492 2499 2499 2505 2512 2520 2531 2536 2543 2561 2577 2581 2595 2617 2638 2659 2676 2689 2709 2739 2753 2769 2792 2802 2814 2825 2832 2838 2845 2855 2863 2874 2883 2892 2901 2920 2938 2950 2964 2973 2986 2996 3002 3006 3002 2999 3001 3008 2987 2968 2947 2920 2901 2882 2873 2840 2826 2793 2787 2771 2754 2728 2696 2677 2652 2642 2622 2599 2592 2584 2574 2570 2566 2562 2547 2539 2544 2541 2549 2552 2553 2557 2561 2565 2576 2569 2563 2570 2566 2529 2492 2478 2474 2458 2443 2436 2418 2420 2412 2400 2386 2368 2345 2316 2284 2250 2235 2217 2187 2165 2169 2149 2136 2149 2159 2118 2078 2061 2028 2018 2009 1984 1958 1960 1929 1925 1921 1917 1914 1910 1910 1910 1911 1905
3202 3217 3222 3232 3238 3250 3262 3278 3288 3294 3312 3348 3380 3407 3436 3456 3474 3501 3508 3521 3533 3528 3527 3523 3515 3493 3473 3449 3403 3380 3372 3364 3354 3343 3318 3299 3275 3272 3268 3251 3233 3232 3224 3207 3183 3163 3135 3108 3085 3088 3076 3081 3079 3043 2998 2974 2969 2952 2958 2941 2932 2927 2920 2910 2902 2894 2886 2882 2878 2874 2876 2878 2880 2879 2878 2877 2867 2858 2849 2837 2819 2788 2769 2774 2790 2793 2795 2794 2791 2790 2767 2745 2726 2701 2688 2672 2654 2635 2631 2608 2591 2576 2565 2558 2556 2561 2560 2554 2548 2541 2534 2514 2508 2507 2501 2497 2504 2509 2509 2506 2504 2501 2503 2504 2513 2513 2519 2528 2535 2538 2545 2552 2566 2581 2587 2601 2631 2649 2663 2677 2693 2715 2742 2763 2775 2791 2812 2825 2836 2843 2852 2861 2870 2880 2889 2896 2903 2918 2946 2963 2973 2982 2984 2991 2994 2998 3004 3001 3000 3010 3015 3010 2979 2946 2925 2902 2876 2873 2837 2808 2788 2786 2765 2755 2730 2713 2684 2657 2651 2636 2620 2602 2605 2596 2592 2583 2568 2563 2559 2565 2564 2570 2576 2584 2586 2580 2582 2573 2574 2580 2572 2568 2529 2504 2490 2487 2473 2463 2453 2441 2432 2425 2412 2396 2379 2363 2323 2307 2286 2265 2246 2236 2218 2198 2179 2189 2200 2189 2169 2132 2094 2085 2075 2065 2044 2024 2003 1989 1975 1962 1952 1942 1932 1929 1926 1927 1919
3201 3211 3220 3235 3242 3250 3258 3276 3290 3306 3327 3363 3394 3423 3457 3464 3498 3514 3535 3542 3545 3538 3532 3530 3521 3520 3510 3479 3417 3400 3386 3377 3372 3359 3340 3321 3299 3296 3283 3275 3261 3265 3255 3236 3209 3214 3180 3136 3140 3132 3121 3114 3098 3083 3048 3016 3011 3005 2984 2976 2962 2968 2976 2961 2954 2948 2941 2937 2933 2929 2930 2930 2931 2927 2923 2919 2910 2900 2890 2879 2866 2842 2811 2805 2819 2829 2827 2834 2824 2805 2784 2761 2740 2713 2701 2690 2678 2666 2655 2643 2627 2611 2594 2579 2575 2571 2570 2564 2560 2557 2542 2536 2525 2518 2512 2514 2517 2512 2505 2497 2494 2499 2498 2506 2516 2529 2530 2536 2541 2552 2557 2564 2575 2588 2604 2627 2646 2670 2674 2688 2717 2730 2749 2759 2771 2792 2809 2827 2841 2854 2862 2872 2882 2894 2913 2917 2927 2952 2965 2974 2978 2977 2979 2986 2989 2993 2994 2999 3001 3009 3008 3010 2965 2946 2916 2880 2867 2845 2825 2799 2781 2777 2769 2764 2739 2716 2695 2680 2659 2649 2639 2628 2626 2626 2619 2605 2588 2584 2588 2598 2599 2599 2604 2602 2594 2592 2585 2579 2579 2580 2575 2562 2551 2514 2514 2487 2493 2480 2465 2467 2450 2457 2431 2417 2414 2382 2360 2318 2314 2296 2290 2279 2270 2253 2236 2243 2240 2256 2222 2185 2152 2141 2128 2119 2105 2086 2067 2049 2026 2002 1986 1970 1954 1948 1943 1942 1939
3200 3214 3228 3231 3241 3255 3268 3285 3301 3331 3356 3384 3413 3451 3469 3503 3527 3548 3561 3567 3570 3559 3548 3538 3536 3529 3525 3503 3465 3420 3418 3400 3385 3372 3354 3345 3327 3326 3322 3310 3312 3301 3300 3291 3274 3234 3220 3198 3160 3165 3161 3170 3165 3142 3080 3041 3043 3048 3031 3036 3029 3057 3058 3037 3007 3001 2995 2991 2988 2984 2983 2983 2982 2975 2969 2962 2952 2941 2931 2927 2935 2888 2836 2827 2822 2829 2834 2839 2843 2829 2801 2773 2761 2749 2732 2716 2699 2689 2678 2668 2651 2633 2616 2606 2594 2585 2586 2580 2570 2563 2551 2536 2530 2528 2523 2521 2525 2524 2505 2501 2494 2500 2507 2519 2524 2531 2541 2548 2557 2563 2571 2582 2595 2607 2622 2636 2655 2676 2687 2706 2723 2733 2744 2756 2770 2789 2810 2823 2842 2855 2865 2881 2896 2920 2928 2938 2949 2957 2962 2971 2967 2972 2976 2985 2992 2987 2991 2996 3000 2997 3004 2990 2952 2925 2895 2858 2841 2824 2815 2798 2787 2778 2767 2758 2732 2710 2695 2682 2673 2660 2648 2643 2640 2635 2631 2627 2626 2624 2629 2623 2625 2621 2618 2606 2602 2592 2594 2577 2581 2579 2577 2580 2564 2544 2512 2514 2506 2496 2496 2500 2485 2471 2459 2445 2433 2411 2392 2368 2333 2316 2317 2319 2312 2308 2293 2281 2279 2280 2273 2242 2200 2180 2167 2168 2161 2158 2117 2110 2076 2043 2021 1998 1976 1968 1959 1951 1951
3200 3214 3224 3236 3246 3264 3264 3291 3334 3363 3390 3410 3435 3468 3515 3540 3557 3574 3583 3592 3589 3586 3561 3545 3542 3544 3533 3518 3479 3466 3434 3438 3409 3389 3378 3365 3360 3359 3352 3353 3347 3346 3350 3310 3296 3280 3267 3227 3196 3191 3183 3183 3175 3167 3145 3141 3124 3091 3088 3104 3111 3103 3128 3132 3083 3048 3043 3039 3035 3031 3027 3023 3019 3011 3003 2994 2985 2976 2967 2966 2979 2978 2891 2890 2862 2845 2841 2845 2846 2836 2816 2806 2796 2785 2769 2752 2735 2719 2702 2685 2672 2659 2645 2629 2617 2611 2601 2589 2579 2563 2553 2544 2536 2535 2533 2534 2532 2532 2504 2504 2499 2506 2520 2522 2529 2536 2548 2557 2567 2575 2586 2599 2606 2627 2642 2652 2671 2688 2704 2715 2722 2732 2739 2749 2759 2779 2794 2816 2830 2844 2859 2874 2896 2923 2933 2942 2944 2956 2952 2956 2959 2960 2976 2981 2991 2999 3003 2996 2993 2984 2979 2956 2939 2907 2857 2831 2824 2809 2804 2796 2789 2770 2756 2745 2727 2714 2702 2691 2679 2671 2667 2665 2656 2655 2653 2649 2645 2643 2642 2640 2638 2638 2631 2623 2619 2612 2599 2592 2582 2588 2585 2591 2587 2583 2543 2536 2533 2537 2534 2525 2512 2504 2475 2468 2456 2426 2412 2409 2379 2346 2348 2347 2348 2337 2325 2311 2310 2317 2291 2264 2237 2226 2201 2189 2180 2167 2153 2138 2111 2084 2063 2042 2020 2002 1984 1966 1963
3205 3220 3234 3247 3248 3263 3280 3338 3363 3396 3413 3429 3474 3514 3547 3564 3580 3601 3607 3605 3603 3598 3590 3582 3578 3578 3551 3553 3508 3481 3471 3460 3447 3440 3441 3423 3399 3394 3395 3383 3378 3373 3361 3358 3344 3308 3291 3272 3244 3251 3230 3186 3180 3175 3177 3183 3168 3140 3129 3123 3152 3145 3143 3148 3144 3114 3092 3087 3083 3079 3071 3064 3056 3046 3036 3027 3019 3011 3000 2991 2991 2994 2985 2978 2892 2874 2861 2866 2863 2854 2847 2839 2830 2822 2805 2788 2772 2749 2726 2703 2693 2684 2675 2653 2637 2627 2614 2606 2575 2562 2557 2550 2538 2541 2539 2540 2535 2536 2524 2503 2499 2515 2525 2528 2533 2538 2551 2566 2573 2579 2593 2603 2621 2637 2654 2667 2683 2699 2712 2718 2725 2731 2737 2744 2756 2771 2789 2800 2818 2846 2861 2885 2900 2919 2927 2939 2940 2937 2934 2948 2955 2962 2979 2987 3001 3012 3005 2997 2985 2981 2966 2945 2909 2852 2823 2814 2800 2797 2791 2785 2770 2760 2748 2729 2724 2716 2706 2698 2695 2683 2682 2686 2679 2672 2673 2673 2671 2665 2658 2653 2646 2646 2642 2636 2624 2620 2625 2599 2595 2596 2585 2589 2598 2588 2581 2582 2576 2567 2565 2558 2531 2525 2511 2491 2480 2461 2451 2439 2427 2383 2387 2372 2374 2374 2348 2343 2340 2332 2308 2285 2262 2250 2238 2227 2214 2192 2178 2166 2145 2125 2105 2085 2065 2037 2009 1981 1976
3206 3218 3237 3251 3256 3287 3339 3357 3401 3421 3438 3485 3511 3538 3559 3592 3616 3622 3632 3633 3636 3622 3607 3603 3599 3600 3593 3573 3549 3509 3502 3491 3477 3470 3475 3453 3431 3429 3421 3419 3419 3410 3399 3400 3383 3367 3347 3338 3316 3301 3300 3292 3268 3242 3220 3212 3202 3179 3183 3187 3178 3163 3147 3143 3152 3155 3141 3135 3131 3126 3115 3104 3093 3082 3070 3053 3043 3036 3032 3023 3012 3006 2992 2982 2977 2900 2890 2894 2886 2882 2878 2871 2865 2858 2841 2825 2795 2779 2749 2720 2715 2709 2684 2676 2650 2637 2621 2601 2584 2568 2558 2556 2546 2538 2547 2540 2545 2547 2540 2524 2523 2523 2521 2534 2538 2545 2553 2562 2570 2578 2595 2612 2627 2642 2659 2672 2687 2705 2708 2711 2721 2727 2733 2743 2755 2769 2784 2802 2825 2844 2864 2883 2894 2905 2914 2922 2922 2924 2929 2939 2956 2966 2994 3002 3013 3012 3011 3004 2981 2962 2953 2916 2866 2820 2816 2797 2802 2796 2782 2764 2758 2751 2741 2733 2725 2720 2717 2711 2699 2693 2694 2699 2704 2698 2690 2689 2686 2679 2670 2663 2656 2654 2652 2651 2638 2630 2628 2626 2629 2613 2597 2604 2617 2623 2619 2612 2616 2609 2592 2574 2560 2559 2532 2525 2508 2495 2488 2473 2465 2438 2424 2414 2408 2405 2386 2375 2360 2346 2326 2307 2287 2275 2262 2250 2237 2224 2204 2191 2180 2166 2147 2128 2109 2071 2034 1996 1989
3221 3244 3263 3292 3337 3340 3373 3405 3439 3461 3481 3517 3539 3555 3589 3615 3622 3644 3653 3659 3655 3647 3642 3636 3641 3622 3621 3614 3599 3573 3566 3562 3543 3534 3533 3503 3481 3463 3457 3442 3430 3429 3418 3412 3395 3385 3371 3349 3339 3324 3319 3318 3298 3286 3265 3245 3228 3212 3198 3190 3191 3190 3194 3187 3188 3181 3176 3175 3162 3157 3145 3132 3120 3109 3091 3084 3069 3065 3058 3049 3029 3019 3000 2990 2975 2959 2954 2925 2911 2908 2905 2895 2886 2876 2857 2837 2818 2790 2761 2733 2720 2708 2696 2673 2662 2639 2614 2600 2583 2571 2566 2561 2551 2548 2544 2547 2554 2557 2546 2540 2531 2528 2534 2538 2540 2539 2546 2565 2576 2581 2591 2612 2625 2640 2657 2658 2680 2690 2701 2705 2716 2726 2735 2744 2755 2776 2795 2814 2832 2855 2871 2883 2891 2899 2903 2911 2917 2924 2934 2940 2962 2987 2999 3012 3009 3011 3000 2985 2969 2947 2920 2875 2820 2817 2804 2796 2792 2788 2771 2765 2757 2752 2744 2739 2733 2732 2730 2724 2717 2714 2716 2712 2708 2705 2706 2705 2702 2693 2687 2683 2677 2673 2678 2679 2669 2669 2661 2654 2661 2640 2643 2642 2643 2645 2640 2636 2633 2614 2606 2597 2593 2582 2573 2561 2562 2548 2514 2502 2482 2460 2451 2441 2431 2426 2427 2411 2396 2381 2359 2336 2314 2301 2288 2275 2262 2248 2235 2217 2205 2192 2173 2155 2137 2102 2066 2031 2015
3249 3292 3314 3336 3340 3371 3404 3438 3477 3483 3515 3535 3576 3591 3613 3621 3647 3652 3662 3668 3689 3685 3682 3661 3664 3649 3634 3624 3607 3607 3604 3631 3627 3599 3580 3547 3523 3489 3458 3452 3446 3432 3423 3421 3410 3392 3382 3365 3361 3348 3330 3333 3323 3314 3295 3272 3248 3230 3219 3211 3207 3210 3219 3221 3217 3214 3216 3218 3197 3189 3179 3166 3152 3137 3119 3096 3085 3077 3065 3056 3044 3022 3014 3002 3000 2993 2979 2952 2935 2933 2931 2919 2906 2894 2872 2850 2828 2800 2773 2745 2726 2707 2690 2681 2656 2634 2614 2592 2582 2573 2568 2564 2562 2576 2571 2557 2559 2553 2558 2550 2540 2539 2539 2535 2542 2548 2553 2564 2577 2588 2593 2612 2620 2633 2646 2658 2672 2684 2695 2705 2716 2726 2731 2743 2762 2786 2806 2827 2840 2852 2873 2883 2890 2894 2900 2909 2915 2927 2937 2951 2968 2996 3001 3006 3011 2999 2994 2971 2955 2917 2898 2871 2815 2820 2805 2794 2791 2781 2771 2765 2765 2756 2747 2751 2750 2749 2744 2741 2735 2731 2724 2722 2720 2720 2716 2712 2717 2711 2709 2701 2692 2687 2691 2710 2704 2709 2708 2692 2684 2670 2672 2672 2673 2675 2674 2663 2656 2648 2629 2629 2616 2597 2592 2586 2576 2573 2559 2549 2524 2495 2475 2462 2462 2456 2464 2448 2432 2416 2391 2366 2340 2327 2314 2301 2287 2273 2259 2246 2231 2217 2200 2182 2165 2132 2099 2066 2042
3290 3314 3337 3371 3381 3401 3425 3481 3499 3517 3541 3570 3583 3595 3617 3626 3647 3655 3671 3687 3694 3696 3689 3684 3668 3661 3661 3667 3664 3658 3652 3643 3634 3628 3601 3581 3551 3523 3501 3491 3476 3447 3438 3430 3427 3414 3402 3385 3377 3361 3354 3349 3338 3325 3313 3296 3288 3265 3263 3256 3252 3254 3244 3242 3238 3241 3227 3224 3216 3216 3202 3195 3184 3171 3158 3152 3126 3096 3085 3066 3051 3032 3019 3014 3011 3007 2986 2968 2960 2959 2958 2943 2927 2895 2887 2863 2838 2811 2785 2758 2732 2707 2694 2677 2654 2639 2616 2594 2590 2584 2579 2575 2573 2580 2575 2568 2561 2559 2555 2557 2562 2550 2547 2542 2544 2547 2559 2571 2586 2595 2606 2608 2624 2638 2650 2662 2674 2687 2697 2706 2717 2729 2733 2749 2768 2793 2820 2835 2843 2858 2876 2884 2894 2898 2903 2904 2919 2932 2939 2947 2966 2996 3004 3005 3002 2998 2973 2949 2924 2894 2876 2848 2828 2815 2802 2788 2786 2786 2777 2768 2758 2751 2752 2744 2750 2749 2747 2750 2741 2738 2734 2730 2732 2731 2726 2720 2718 2716 2715 2713 2710 2719 2724 2726 2727 2733 2716 2723 2730 2728 2730 2727 2709 2700 2698 2685 2672 2675 2656 2658 2648 2644 2619 2616 2606 2597 2593 2571 2561 2534 2527 2499 2503 2517 2502 2485 2468 2451 2423 2395 2367 2353 2340 2326 2312 2297 2283 2271 2258 2246 2229 2213 2193 2162 2132 2101 2068
3317 3349 3372 3382 3393 3417 3441 3496 3510 3523 3546 3581 3584 3591 3605 3621 3630 3653 3667 3683 3687 3695 3692 3688 3681 3679 3678 3675 3668 3665 3671 3663 3654 3642 3621 3605 3577 3549 3519 3506 3491 3479 3449 3444 3436 3430 3418 3408 3386 3370 3361 3349 3344 3333 3320 3311 3300 3294 3294 3297 3290 3292 3288 3256 3251 3239 3237 3223 3221 3211 3208 3198 3188 3178 3170 3160 3147 3135 3108 3079 3068 3040 3030 3020 3020 3006 2994 2975 2958 2952 2945 2928 2911 2894 2868 2842 2816 2793 2769 2745 2725 2709 2693 2675 2653 2635 2616 2599 2594 2593 2591 2585 2580 2573 2567 2568 2562 2555 2559 2557 2556 2558 2554 2552 2552 2555 2559 2571 2586 2588 2611 2618 2632 2654 2667 2676 2682 2691 2701 2712 2724 2734 2743 2755 2772 2802 2823 2840 2851 2862 2875 2879 2895 2903 2901 2909 2924 2937 2952 2968 2997 3004 3000 3000 2982 2979 2954 2937 2914 2895 2879 2853 2834 2820 2803 2793 2782 2789 2777 2770 2754 2754 2755 2758 2744 2745 2745 2748 2746 2746 2745 2737 2735 2729 2726 2724 2724 2726 2726 2730 2739 2739 2740 2754 2763 2768 2776 2783 2781 2777 2779 2775 2736 2733 2729 2728 2726 2732 2732 2699 2686 2672 2642 2648 2643 2632 2614 2609 2591 2556 2552 2543 2557 2544 2531 2513 2495 2477 2453 2430 2406 2392 2378 2363 2343 2322 2302 2288 2274 2260 2244 2228 2212 2187 2164 2141 2113
3380 3399 3401 3398 3413 3419 3434 3491 3509 3522 3537 3558 3575 3568 3582 3594 3609 3631 3650 3662 3679 3691 3690 3692 3688 3690 3684 3680 3679 3678 3675 3671 3658 3651 3647 3624 3591 3567 3543 3512 3505 3491 3482 3457 3450 3430 3419 3407 3394 3382 3371 3366 3352 3333 3323 3317 3316 3313 3315 3315 3316 3318 3303 3292 3275 3257 3238 3224 3223 3224 3216 3209 3198 3188 3181 3175 3166 3148 3135 3106 3071 3053 3044 3036 3021 3009 2994 2982 2956 2944 2931 2913 2895 2877 2849 2822 2795 2774 2760 2740 2721 2700 2680 2666 2649 2627 2611 2603 2598 2590 2590 2588 2585 2583 2578 2572 2571 2571 2557 2560 2563 2562 2559 2555 2556 2561 2570 2582 2586 2594 2609 2620 2644 2664 2675 2683 2692 2699 2710 2719 2726 2735 2747 2764 2768 2799 2820 2841 2858 2867 2875 2882 2892 2901 2905 2915 2935 2951 2967 3002 3002 3009 2998 2983 2978 2958 2943 2926 2914 2888 2887 2874 2846 2834 2820 2802 2793 2790 2792 2776 2764 2758 2767 2762 2758 2750 2748 2753 2754 2756 2757 2750 2749 2736 2737 2737 2741 2747 2746 2740 2742 2746 2755 2772 2798 2822 2832 2829 2828 2826 2796 2791 2786 2769 2762 2758 2754 2746 2742 2743 2729 2730 2700 2675 2668 2656 2660 2640 2618 2593 2573 2574 2568 2572 2560 2541 2522 2502 2483 2464 2445 2430 2415 2401 2374 2347 2320 2305 2289 2273 2258 2244 2229 2214 2199 2181 2158
3413 3418 3423 3423 3421 3416 3425 3472 3492 3512 3518 3529 3540 3534 3542 3554 3572 3599 3623 3645 3657 3666 3674 3677 3685 3683 3682 3680 3677 3675 3674 3672 3670 3661 3653 3626 3599 3584 3567 3531 3518 3495 3481 3463 3444 3426 3416 3413 3399 3384 3373 3369 3347 3329 3318 3316 3316 3315 3317 3316 3321 3322 3312 3297 3295 3272 3248 3226 3219 3221 3229 3224 3210 3206 3196 3183 3168 3160 3135 3104 3082 3071 3047 3032 3008 3003 2994 2964 2945 2937 2918 2898 2879 2859 2830 2802 2788 2771 2756 2736 2717 2695 2680 2664 2646 2624 2611 2608 2605 2595 2592 2590 2591 2586 2580 2578 2575 2582 2578 2571 2571 2573 2568 2565 2565 2568 2575 2584 2592 2600 2611 2625 2643 2663 2682 2696 2704 2712 2722 2730 2736 2743 2752 2762 2768 2788 2815 2837 2856 2873 2882 2886 2893 2903 2916 2933 2950 2963 2983 2996 3005 3008 3000 2979 2976 2955 2943 2932 2920 2914 2898 2884 2871 2851 2837 2824 2818 2817 2816 2794 2790 2778 2775 2777 2771 2764 2757 2750 2758 2763 2763 2768 2753 2753 2752 2769 2769 2772 2775 2769 2778 2780 2795 2810 2820 2857 2873 2878 2872 2841 2835 2832 2835 2819 2807 2794 2777 2768 2771 2779 2772 2755 2750 2725 2691 2686 2675 2659 2646 2635 2601 2592 2591 2583 2572 2569 2548 2528 2513 2499 2484 2469 2453 2422 2405 2372 2339 2322 2304 2287 2273 2259 2245 2238 2231 2224 2206
3440 3440 3437 3436 3428 3419 3421 3450 3476 3485 3487 3494 3495 3505 3504 3516 3531 3555 3588 3614 3629 3634 3644 3651 3652 3657 3665 3667 3669 3671 3670 3669 3664 3658 3630 3612 3596 3590 3564 3536 3516 3497 3487 3453 3448 3426 3415 3408 3401 3391 3366 3348 3327 3312 3305 3305 3307 3304 3302 3307 3311 3314 3300 3300 3290 3272 3253 3233 3225 3221 3222 3223 3212 3205 3200 3190 3162 3155 3119 3098 3081 3066 3052 3030 3013 2998 2960 2947 2926 2924 2905 2884 2862 2841 2817 2797 2782 2771 2754 2724 2702 2694 2676 2662 2641 2622 2611 2601 2608 2599 2597 2594 2592 2592 2587 2584 2586 2588 2586 2580 2577 2576 2583 2573 2575 2576 2582 2583 2597 2605 2612 2622 2636 2654 2672 2690 2707 2717 2727 2733 2739 2745 2750 2758 2770 2784 2804 2832 2853 2872 2881 2887 2900 2917 2935 2949 2949 2961 2989 3000 3004 3005 3002 2985 2973 2957 2943 2934 2929 2926 2919 2909 2889 2884 2882 2872 2865 2844 2840 2822 2808 2791 2788 2785 2781 2777 2772 2768 2772 2775 2770 2771 2772 2770 2776 2779 2783 2776 2804 2802 2801 2812 2818 2843 2852 2882 2936 2931 2903 2882 2870 2853 2854 2858 2853 2839 2818 2809 2790 2797 2796 2784 2752 2743 2748 2723 2720 2699 2688 2670 2656 2653 2613 2599 2586 2569 2551 2533 2520 2507 2493 2477 2461 2445 2416 2387 2358 2344 2330 2316 2304 2292 2280 2273 2266 2259 2243
3452 3448 3446 3440 3430 3421 3423 3424 3446 3444 3446 3459 3462 3464 3465 3471 3484 3514 3542 3578 3608 3613 3622 3625 3625 3630 3634 3642 3645 3647 3649 3649 3642 3631 3614 3599 3586 3561 3554 3530 3493 3483 3476 3453 3434 3423 3418 3406 3396 3372 3340 3317 3302 3292 3283 3272 3256 3246 3244 3262 3268 3277 3282 3285 3268 3261 3239 3237 3224 3226 3218 3218 3208 3202 3190 3177 3163 3143 3105 3098 3064 3050 3041 3019 2991 2968 2941 2915 2902 2899 2893 2869 2848 2828 2808 2788 2777 2762 2749 2729 2698 2687 2675 2658 2640 2625 2613 2607 2606 2595 2592 2590 2593 2597 2600 2596 2590 2594 2588 2585 2584 2587 2586 2585 2583 2583 2581 2589 2606 2611 2616 2624 2634 2646 2666 2683 2696 2708 2719 2727 2733 2740 2748 2756 2765 2777 2800 2799 2839 2859 2875 2887 2908 2925 2941 2944 2947 2960 2982 2996 3009 3006 3004 2980 2972 2966 2960 2959 2942 2931 2930 2926 2925 2932 2925 2925 2915 2879 2864 2850 2831 2811 2807 2805 2803 2794 2792 2808 2807 2794 2793 2785 2789 2790 2800 2813 2809 2814 2815 2809 2830 2838 2846 2867 2879 2934 2935 2936 2930 2904 2897 2888 2879 2864 2870 2852 2849 2830 2824 2825 2819 2819 2812 2788 2759 2748 2752 2724 2704 2683 2663 2661 2650 2618 2597 2575 2554 2539 2527 2515 2503 2486 2468 2451 2427 2402 2378 2367 2356 2346 2336 2326 2316 2309 2302 2295 2281
3459 3456 3447 3441 3443 3412 3415 3417 3416 3419 3419 3424 3427 3433 3432 3432 3439 3454 3485 3521 3558 3587 3598 3604 3609 3613 3622 3623 3625 3618 3621 3622 3613 3605 3597 3584 3564 3547 3528 3498 3476 3473 3451 3440 3427 3415 3412 3387 3361 3334 3316 3299 3281 3253 3245 3228 3215 3215 3221 3229 3231 3237 3246 3255 3259 3245 3232 3224 3209 3211 3209 3206 3204 3183 3173 3169 3153 3125 3101 3083 3049 3035 3029 3010 2975 2952 2920 2906 2894 2888 2873 2858 2839 2820 2804 2791 2772 2753 2740 2724 2709 2685 2670 2657 2641 2626 2615 2608 2602 2596 2590 2588 2596 2601 2608 2614 2604 2601 2600 2594 2590 2594 2593 2591 2588 2588 2587 2592 2602 2612 2616 2629 2646 2653 2671 2685 2694 2703 2717 2728 2738 2743 2753 2761 2769 2778 2788 2799 2816 2834 2866 2890 2909 2926 2939 2943 2943 2948 2968 2990 3004 3015 3005 2999 2979 2973 2963 2962 2969 2966 2951 2945 2942 2957 2954 2952 2924 2914 2902 2866 2849 2823 2821 2818 2817 2815 2814 2820 2813 2830 2828 2822 2817 2818 2819 2827 2833 2839 2846 2855 2863 2872 2880 2891 2924 2929 2947 2943 2933 2935 2925 2914 2899 2885 2873 2867 2855 2852 2837 2836 2836 2834 2822 2808 2787 2769 2751 2746 2720 2703 2687 2675 2658 2645 2614 2569 2556 2544 2533 2523 2512 2494 2476 2458 2438 2417 2418 2409 2395 2375 2367 2359 2351 2344 2337 2330 2318
3462 3455 3449 3443 3411 3404 3398 3395 3396 3393 3402 3407 3410 3415 3417 3420 3422 3426 3445 3475 3510 3546 3568 3584 3592 3594 3603 3605 3601 3591 3589 3589 3590 3581 3572 3561 3529 3510 3485 3477 3459 3445 3443 3420 3413 3396 3372 3340 3316 3300 3287 3277 3247 3235 3227 3216 3209 3207 3210 3213 3215 3216 3219 3220 3222 3221 3222 3209 3188 3190 3195 3200 3186 3166 3148 3155 3129 3107 3092 3063 3050 3022 3006 2986 2951 2937 2915 2901 2889 2881 2865 2849 2833 2816 2801 2782 2769 2752 2744 2725 2711 2683 2668 2653 2638 2627 2620 2608 2602 2601 2598 2597 2599 2606 2608 2614 2608 2607 2607 2600 2589 2588 2597 2600 2597 2596 2599 2599 2607 2616 2626 2641 2651 2665 2683 2696 2702 2711 2719 2731 2744 2758 2768 2771 2775 2782 2791 2800 2815 2826 2857 2895 2892 2911 2919 2932 2934 2942 2960 2981 3008 3011 3017 3012 2997 2985 2991 2989 2988 2985 2978 2971 2972 2968 2967 2961 2955 2933 2913 2889 2861 2859 2856 2854 2852 2850 2848 2848 2848 2852 2849 2837 2822 2839 2843 2848 2858 2868 2878 2891 2903 2915 2918 2924 2924 2950 2957 2954 2948 2931 2927 2926 2912 2895 2877 2871 2865 2851 2843 2841 2838 2833 2829 2828 2803 2779 2772 2758 2744 2714 2702 2688 2677 2649 2638 2600 2562 2550 2539 2529 2519 2506 2492 2479 2466 2452 2457 2469 2444 2427 2421 2413 2405 2396 2387 2379 2367
3462 3445 3428 3405 3385 3385 3380 3377 3373 3370 3370 3368 3372 3377 3385 3392 3400 3402 3427 3446 3481 3510 3540 3555 3577 3585 3588 3590 3587 3573 3576 3576 3568 3558 3543 3535 3503 3481 3478 3456 3427 3426 3421 3404 3394 3368 3342 3305 3286 3279 3270 3256 3239 3225 3217 3203 3192 3182 3178 3184 3187 3191 3196 3194 3183 3183 3195 3188 3171 3175 3173 3156 3129 3131 3100 3095 3091 3096 3079 3064 3037 3028 3005 2979 2952 2928 2909 2897 2886 2875 2862 2841 2826 2811 2797 2776 2765 2763 2741 2720 2699 2674 2656 2648 2635 2625 2617 2613 2616 2611 2609 2611 2612 2613 2612 2614 2612 2617 2613 2607 2603 2604 2611 2614 2607 2606 2605 2606 2612 2618 2629 2646 2658 2672 2689 2703 2713 2725 2731 2745 2755 2765 2774 2779 2782 2786 2792 2801 2805 2825 2847 2872 2890 2898 2903 2910 2922 2931 2953 2969 3009 3024 3035 3032 3009 3004 3002 3003 3025 3020 3008 3001 2991 2979 2966 2973 2958 2944 2929 2901 2896 2894 2892 2890 2888 2885 2883 2881 2879 2879 2877 2875 2868 2871 2877 2884 2896 2909 2921 2932 2943 2955 2961 2960 2970 2974 2963 2957 2943 2936 2936 2930 2912 2899 2878 2867 2863 2856 2848 2835 2838 2836 2830 2824 2805 2786 2775 2776 2763 2733 2713 2708 2686 2666 2639 2615 2567 2555 2546 2536 2526 2517 2509 2500 2494 2518 2484 2532 2487 2488 2489 2467 2458 2448 2438 2427 2416
3428 3414 3405 3380 3373 3368 3362 3355 3350 3345 3345 3345 3348 3351 3355 3361 3367 3393 3400 3430 3464 3487 3512 3538 3553 3565 3576 3575 3569 3565 3559 3555 3541 3540 3536 3508 3491 3475 3468 3423 3422 3414 3397 3387 3372 3343 3305 3286 3280 3260 3250 3243 3228 3213 3202 3186 3171 3161 3154 3150 3149 3149 3145 3150 3150 3157 3172 3174 3159 3154 3145 3135 3123 3104 3095 3087 3083 3085 3070 3053 3025 3022 3011 2974 2951 2921 2902 2893 2882 2866 2852 2835 2822 2808 2795 2778 2769 2757 2724 2695 2684 2671 2655 2647 2633 2625 2620 2618 2619 2616 2615 2622 2619 2615 2613 2608 2611 2610 2614 2612 2609 2611 2614 2615 2613 2612 2610 2612 2616 2627 2645 2659 2672 2687 2699 2710 2722 2732 2742 2754 2761 2774 2783 2787 2792 2794 2797 2802 2807 2819 2832 2843 2876 2885 2891 2904 2903 2917 2930 2971 3005 3038 3047 3044 3038 3021 3016 3020 3021 3021 3032 3025 3008 2990 2980 2984 2961 2951 2944 2938 2931 2929 2928 2926 2923 2920 2917 2914 2910 2914 2916 2907 2906 2904 2912 2921 2935 2949 2963 2973 2984 2994 2997 2997 2992 2982 2971 2964 2949 2942 2931 2925 2904 2890 2883 2875 2862 2860 2849 2843 2829 2821 2822 2818 2810 2791 2784 2782 2773 2766 2736 2707 2691 2690 2663 2634 2573 2561 2552 2542 2533 2529 2525 2521 2559 2631 2629 2634 2645 2648 2569 2531 2512 2500 2488 2476 2465
3393 3373 3371 3364 3356 3351 3343 3333 3329 3326 3326 3329 3331 3330 3333 3345 3358 3380 3403 3420 3448 3480 3502 3524 3538 3549 3557 3564 3560 3556 3549 3536 3523 3516 3513 3486 3479 3471 3452 3429 3408 3402 3397 3376 3359 3307 3284 3284 3267 3257 3246 3232 3217 3200 3182 3168 3156 3145 3138 3133 3130 3129 3134 3137 3141 3141 3147 3150 3148 3143 3132 3125 3105 3102 3086 3068 3074 3068 3058 3041 3027 3020 3014 3002 2955 2916 2901 2889 2872 2855 2842 2828 2813 2802 2789 2776 2765 2763 2730 2691 2679 2665 2649 2634 2640 2627 2625 2621 2619 2624 2619 2617 2618 2611 2607 2609 2613 2612 2610 2613 2608 2611 2617 2620 2618 2621 2622 2622 2634 2650 2667 2677 2693 2702 2712 2722 2732 2743 2751 2760 2771 2778 2789 2794 2799 2801 2801 2805 2811 2820 2826 2838 2843 2871 2881 2892 2903 2912 2931 2970 3025 3046 3056 3056 3061 3047 3044 3038 3043 3070 3064 3030 3028 3023 3023 3020 3010 3000 2992 2983 2975 2973 2970 2968 2965 2962 2959 2955 2950 2946 2961 2952 2952 2942 2953 2964 2979 2994 3009 3018 3027 3036 3033 3031 3028 3000 2974 2960 2957 2947 2939 2927 2901 2895 2889 2896 2876 2863 2852 2848 2834 2828 2821 2820 2820 2807 2796 2786 2768 2763 2759 2738 2716 2684 2691 2662 2624 2584 2574 2564 2554 2552 2551 2589 2615 2624 2654 2684 2680 2650 2646 2575 2559 2543 2529 2515 2503
3371 3362 3348 3338 3327 3321 3317 3316 3309 3310 3308 3306 3312 3315 3321 3327 3340 3365 3390 3416 3432 3471 3500 3518 3532 3543 3546 3546 3547 3542 3534 3512 3505 3498 3485 3476 3470 3456 3430 3421 3409 3403 3386 3367 3322 3300 3280 3271 3259 3248 3236 3220 3199 3190 3175 3162 3149 3134 3129 3123 3123 3118 3117 3119 3122 3124 3125 3131 3131 3128 3114 3101 3096 3083 3072 3055 3046 3042 3042 3027 3024 3020 3016 2998 2951 2917 2890 2893 2870 2849 2839 2822 2810 2790 2781 2767 2760 2737 2712 2685 2668 2653 2641 2634 2641 2636 2631 2618 2625 2623 2616 2619 2619 2619 2614 2609 2609 2611 2615 2613 2611 2614 2622 2626 2632 2635 2636 2642 2650 2662 2677 2690 2702 2714 2726 2735 2743 2751 2758 2764 2775 2785 2791 2800 2803 2806 2806 2808 2810 2817 2826 2830 2836 2849 2875 2890 2901 2910 2933 2967 3035 3044 3065 3078 3077 3079 3076 3081 3101 3104 3103 3085 3069 3070 3079 3069 3059 3050 3039 3029 3019 3016 3013 3009 3007 3004 3001 2996 2990 3014 3020 3025 3001 2981 2993 3006 3023 3039 3055 3063 3070 3078 3069 3061 3052 3035 2992 2968 2962 2956 2952 2937 2923 2906 2910 2901 2894 2877 2863 2859 2847 2835 2829 2831 2818 2822 2812 2791 2793 2765 2763 2762 2734 2718 2699 2686 2667 2623 2597 2585 2574 2575 2576 2629 2651 2680 2681 2693 2701 2702 2650 2649 2605 2584 2567 2554 2542
3365 3348 3331 3314 3304 3296 3292 3286 3283 3283 3295 3293 3295 3305 3309 3315 3332 3347 3383 3400 3427 3464 3494 3514 3527 3537 3544 3540 3533 3530 3507 3489 3480 3475 3468 3455 3442 3431 3418 3403 3405 3393 3374 3341 3320 3306 3290 3273 3257 3247 3235 3215 3203 3190 3181 3161 3143 3126 3115 3109 3108 3107 3107 3108 3109 3108 3112 3111 3108 3093 3078 3074 3060 3065 3043 3046 3046 3039 3029 3019 3017 3011 3005 2991 2944 2900 2893 2868 2857 2836 2826 2814 2795 2782 2773 2747 2736 2722 2691 2675 2659 2647 2637 2630 2624 2629 2625 2624 2621 2625 2619 2618 2618 2617 2612 2613 2615 2616 2612 2609 2608 2620 2627 2634 2638 2643 2646 2651 2660 2677 2687 2696 2708 2721 2733 2743 2750 2757 2765 2772 2779 2785 2788 2795 2801 2805 2807 2810 2812 2821 2826 2831 2842 2850 2874 2886 2900 2914 2931 2973 3029 3053 3085 3099 3111 3148 3153 3153 3156 3160 3146 3138 3130 3113 3127 3118 3108 3099 3087 3075 3063 3059 3055 3051 3048 3046 3043 3037 3030 3082 3105 3082 3059 3019 3034 3049 3066 3084 3101 3107 3114 3120 3105 3091 3076 3053 3013 2973 2969 2962 2958 2946 2942 2926 2931 2929 2922 2907 2884 2860 2864 2872 2866 2851 2847 2836 2837 2836 2813 2808 2811 2772 2756 2729 2716 2699 2681 2655 2627 2607 2595 2616 2640 2675 2679 2687 2724 2719 2726 2705 2695 2673 2645 2616 2601 2590 2577
3339 3322 3300 3286 3272 3261 3246 3250 3256 3263 3271 3277 3286 3294 3298 3304 3316 3339 3369 3391 3431 3462 3488 3507 3521 3530 3535 3532 3524 3513 3491 3482 3474 3461 3447 3430 3415 3405 3402 3394 3384 3377 3348 3336 3325 3310 3293 3274 3256 3241 3220 3217 3198 3195 3174 3139 3129 3116 3107 3100 3092 3094 3096 3098 3099 3099 3094 3087 3082 3070 3064 3060 3051 3043 3040 3034 3033 3025 3020 3011 2996 2987 2989 2952 2921 2886 2883 2862 2843 2833 2816 2806 2782 2771 2746 2737 2724 2693 2677 2662 2656 2648 2636 2627 2623 2622 2620 2619 2620 2624 2622 2620 2622 2620 2616 2624 2618 2616 2613 2613 2619 2628 2629 2638 2646 2648 2655 2667 2672 2687 2698 2705 2713 2728 2741 2750 2757 2766 2775 2782 2787 2791 2796 2800 2806 2808 2812 2816 2821 2833 2835 2839 2853 2863 2869 2898 2899 2909 2926 2971 3017 3050 3085 3104 3146 3149 3177 3181 3183 3182 3188 3209 3197 3184 3171 3163 3155 3146 3135 3125 3114 3110 3106 3102 3098 3095 3091 3083 3138 3177 3162 3160 3111 3092 3077 3092 3110 3128 3145 3148 3150 3153 3134 3115 3096 3072 3049 3005 2974 2980 2972 2961 2948 2950 2945 2948 2936 2933 2934 2915 2904 2893 2885 2879 2874 2873 2864 2871 2850 2838 2819 2805 2771 2758 2731 2720 2700 2681 2656 2642 2643 2654 2683 2682 2710 2722 2728 2743 2741 2733 2724 2699 2666 2640 2628 2616 2599
3324 3295 3268 3248 3239 3229 3229 3227 3229 3244 3255 3264 3276 3286 3291 3305 3318 3335 3367 3393 3427 3463 3485 3498 3508 3513 3518 3517 3515 3506 3492 3471 3454 3443 3426 3408 3398 3389 3379 3369 3359 3349 3334 3328 3314 3301 3290 3278 3255 3236 3213 3194 3192 3170 3142 3124 3095 3089 3087 3089 3081 3079 3079 3080 3081 3080 3072 3069 3060 3056 3046 3044 3036 3029 3019 3021 3015 3009 3004 2993 2972 2954 2956 2933 2905 2886 2871 2862 2848 2837 2815 2803 2782 2750 2745 2719 2708 2684 2669 2657 2649 2644 2635 2629 2624 2621 2622 2624 2626 2631 2631 2628 2626 2623 2629 2622 2620 2617 2613 2620 2624 2627 2633 2635 2639 2649 2663 2669 2673 2696 2710 2718 2723 2724 2739 2747 2756 2772 2779 2787 2793 2797 2805 2811 2815 2817 2821 2826 2831 2834 2838 2848 2858 2868 2887 2896 2896 2912 2930 2974 3013 3056 3078 3120 3150 3174 3194 3206 3205 3213 3236 3245 3235 3225 3215 3208 3201 3194 3184 3174 3164 3161 3157 3154 3149 3143 3138 3177 3229 3223 3208 3193 3165 3142 3119 3136 3154 3172 3190 3188 3187 3185 3162 3139 3115 3091 3060 3035 3007 2985 2982 2973 2980 2959 2954 2949 2963 2945 2941 2948 2933 2918 2889 2893 2885 2878 2877 2881 2872 2863 2858 2823 2808 2770 2756 2748 2717 2705 2681 2683 2674 2692 2719 2734 2743 2741 2753 2756 2765 2755 2739 2728 2687 2662 2647 2632 2625
3283 3261 3236 3218 3210 3215 3212 3209 3211 3218 3237 3252 3268 3281 3295 3310 3326 3344 3370 3401 3435 3473 3487 3494 3501 3504 3504 3508 3511 3497 3486 3463 3436 3420 3400 3386 3376 3357 3347 3336 3328 3321 3315 3308 3297 3284 3275 3270 3248 3222 3202 3182 3167 3148 3119 3094 3087 3080 3073 3073 3065 3061 3061 3063 3061 3064 3051 3044 3042 3037 3038 3042 3034 3017 3009 3001 2994 2993 2980 2971 2960 2937 2922 2916 2899 2889 2877 2862 2848 2836 2817 2792 2778 2754 2744 2725 2707 2687 2667 2658 2649 2643 2637 2631 2627 2624 2624 2628 2631 2638 2637 2636 2634 2633 2634 2629 2623 2618 2622 2630 2631 2631 2630 2633 2637 2645 2662 2670 2682 2709 2721 2728 2731 2740 2747 2748 2764 2774 2784 2791 2797 2804 2813 2815 2818 2822 2827 2834 2839 2841 2848 2858 2861 2874 2893 2899 2911 2922 2941 2969 3024 3060 3078 3114 3142 3188 3203 3221 3230 3245 3266 3280 3273 3266 3259 3253 3247 3241 3232 3224 3215 3212 3208 3205 3199 3192 3215 3230 3258 3279 3278 3254 3228 3190 3187 3179 3197 3216 3234 3229 3223 3218 3190 3163 3135 3110 3082 3062 3037 3013 3001 2992 2981 2975 2982 3002 2997 2989 2980 2970 2959 2938 2918 2895 2892 2895 2909 2902 2899 2888 2874 2867 2824 2810 2773 2756 2752 2738 2737 2707 2711 2714 2738 2745 2747 2758 2760 2761 2763 2762 2751 2726 2701 2692 2663 2658 2645
3237 3216 3204 3202 3204 3202 3202 3200 3203 3199 3209 3229 3254 3274 3293 3309 3324 3346 3373 3400 3442 3475 3484 3488 3490 3495 3497 3498 3497 3484 3478 3443 3433 3406 3382 3360 3344 3328 3323 3317 3309 3298 3286 3281 3276 3269 3267 3241 3230 3217 3189 3170 3146 3131 3096 3081 3070 3065 3060 3053 3046 3042 3045 3042 3044 3046 3037 3020 3018 3012 3023 3016 2995 2993 2972 2966 2967 2963 2963 2949 2943 2928 2922 2901 2887 2878 2868 2852 2836 2828 2799 2794 2782 2760 2738 2720 2704 2688 2669 2659 2649 2643 2637 2630 2624 2622 2624 2627 2630 2633 2639 2639 2635 2628 2628 2625 2624 2618 2629 2629 2629 2634 2635 2631 2640 2641 2657 2666 2682 2705 2727 2736 2743 2750 2751 2765 2773 2781 2791 2801 2805 2810 2813 2815 2819 2823 2829 2836 2844 2846 2854 2873 2876 2886 2900 2915 2911 2934 2954 2981 3018 3067 3087 3123 3147 3201 3228 3232 3258 3274 3281 3292 3292 3291 3291 3290 3289 3288 3283 3277 3271 3267 3263 3259 3252 3244 3237 3262 3287 3296 3294 3293 3257 3237 3211 3225 3237 3249 3261 3251 3242 3232 3206 3180 3154 3133 3102 3081 3060 3036 3013 3009 3011 3010 3014 3020 3024 3021 3007 2997 2966 2952 2933 2924 2902 2908 2919 2914 2907 2896 2893 2875 2861 2826 2811 2781 2766 2771 2742 2746 2741 2751 2746 2746 2748 2751 2764 2766 2766 2768 2756 2734 2719 2707 2707 2693 2662
