ncols        475
nrows        48
xllcorner    11.045380000000
yllcorner    46.123352000000
dx           0.000277549474
dy           0.000278136076
NODATA_value -32768
885 902 921 946 977 998 1016 1032 1052 1071 1087 1103 1123 1134 1141 1148 1163 1177 1184 1195 1205 1216 1227 1240 1252 1265 1277 1286 1293 1301 1316 1326 1339 1351 1358 1369 1380 1388 1396 1400 1402 1406 1403 1404 1405 1408 1408 1406 1405 1407 1408 1405 1412 1416 1416 1424 1431 1438 1443 1448 1455 1457 1462 1468 1471 1473 1471 1467 1462 1460 1463 1469 1476 1487 1497 1504 1517 1525 1519 1525 1525 1518 1513 1510 1505 1502 1505 1498 1492 1488 1485 1481 1476 1468 1455 1440 1418 1402 1382 1360 1330 1313 1297 1286 1276 1265 1252 1227 1209 1180 1157 1134 1115 1092 1076 1054 1025 1009 999 986 973 956 943 925 912 898 887 868 855 852 848 848 848 844 842 837 832 827 822 815 809 804 801 798 797 797 798 807 818 830 839 848 862 872 876 878 880 876 867 853 841 829 822 809 793 779 737 697 659 626 593 541 490 451 402 363 340 324 274 248 235 229 222 217 216 215 216 220 219 217 216 215 215 214 213 213 212 212 212 214 215 216 217 217 220 222 220 227 217 208 207 207 206 205 203 202 201 202 204 204 201 198 199 204 208 211 211 209 205 205 205 203 203 203 203 203 205 205 206 207 206 206 207 206 202 202 199 199 199 199 198 198 197 199 203 203 202 201 201 201 201 200 199 202 203 203 203 208 209 211 211 211 211 213 214 215 209 207 206 205 202 202 201 199 199 200 203 203 204 206 207 208 210 210 209 207 207 207 206 207 208 210 214 212 211 211 214 215 214 215 211 213 215 216 214 210 207 203 204 207 208 209 210 208 207 207 205 204 206 211 216 218 224 226 238 249 262 269 282 292 301 305 310 315 320 331 334 336 338 343 345 347 347 347 348 349 354 362 372 379 384 386 389 395 404 407 412 420 429 436 445 454 472 482 494 505 508 505 505 505 508 516 527 529 534 538 538 541 538 535 531 530 532 531 529 530 531 532 532 533 536 538 538 537 538 542 548 558 565 568 572 576 580 584 588 591 593 594 595 596 599 604 609 613 617 619 623 630 631 631 637 645 653 659 664 666 669 671 673 674 676 680 681 681 685 691 699 707 707 715 725 738 746 762 786 797 808 816 831 850 865 883 890 898 897 898 900 905 913 923 933 941 945 953 960
878 896 913 938 958 980 1003 1018 1041 1059 1081 1101 1119 1133 1145 1156 1166 1174 1180 1192 1205 1220 1230 1241 1249 1261 1281 1297 1306 1312 1324 1338 1343 1353 1362 1374 1386 1393 1399 1404 1408 1414 1413 1411 1410 1412 1414 1413 1411 1413 1414 1411 1416 1423 1420 1429 1434 1440 1448 1454 1458 1464 1467 1475 1481 1482 1481 1479 1473 1470 1469 1472 1476 1474 1482 1490 1506 1510 1514 1516 1520 1517 1512 1510 1503 1498 1496 1494 1490 1489 1487 1484 1478 1468 1452 1433 1411 1395 1369 1341 1318 1300 1289 1271 1261 1249 1238 1225 1205 1183 1161 1133 1095 1081 1067 1049 1023 1006 998 986 970 951 936 919 907 895 887 875 860 849 846 846 845 842 839 834 831 826 821 813 806 801 797 796 796 796 799 804 814 827 838 849 858 869 876 880 880 875 854 842 818 818 799 792 774 754 711 681 625 593 552 518 474 444 387 350 329 297 253 234 230 224 220 216 214 213 215 216 216 217 217 217 216 216 214 214 213 214 215 218 218 219 221 223 220 216 223 224 218 211 208 206 207 206 206 205 204 204 202 200 199 198 200 204 208 213 213 211 207 205 206 203 201 200 201 201 203 204 205 205 204 204 205 203 203 202 199 198 197 194 194 196 197 198 201 204 206 204 202 202 198 200 197 198 200 205 205 210 214 213 213 208 217 218 216 212 207 202 200 198 197 197 198 198 199 200 202 204 205 207 208 209 210 207 206 206 206 206 207 207 207 208 209 208 211 213 211 211 212 211 213 215 215 219 218 215 210 209 205 206 207 207 207 206 206 206 204 204 205 209 214 218 217 222 243 256 268 282 289 301 309 313 319 324 332 340 342 343 345 348 348 350 352 353 354 351 354 361 371 379 382 386 391 399 405 412 421 429 438 449 458 475 492 504 508 506 510 517 519 524 524 527 534 537 541 545 547 547 545 544 540 539 539 538 536 536 536 537 538 541 544 546 546 544 542 543 548 556 563 567 569 570 573 577 582 585 589 593 596 599 603 607 610 612 618 623 629 631 634 640 647 653 664 670 673 678 682 686 688 688 687 687 687 689 693 696 704 711 711 725 738 754 765 781 799 809 827 829 845 868 880 893 901 903 903 905 912 915 924 933 942 950 954 959 965
879 899 908 921 940 961 980 1015 1034 1051 1075 1101 1120 1134 1146 1156 1164 1171 1180 1193 1211 1223 1231 1246 1252 1265 1289 1309 1315 1321 1330 1343 1353 1359 1373 1385 1396 1402 1408 1414 1419 1422 1424 1420 1421 1419 1420 1419 1417 1415 1416 1413 1415 1419 1429 1432 1436 1444 1453 1458 1462 1468 1475 1484 1491 1493 1491 1488 1485 1483 1480 1478 1477 1480 1478 1483 1498 1504 1502 1505 1508 1510 1507 1503 1494 1490 1490 1486 1487 1480 1478 1474 1464 1450 1438 1414 1397 1381 1351 1325 1302 1290 1275 1261 1248 1234 1223 1200 1182 1160 1141 1118 1102 1078 1055 1035 1017 1006 994 980 962 942 929 919 904 893 881 869 856 848 844 842 841 841 840 837 834 829 823 816 809 802 798 796 796 796 801 806 815 828 840 850 858 867 875 881 882 870 850 823 818 799 785 774 749 706 681 657 602 580 546 505 457 409 382 350 321 292 251 237 230 224 220 215 213 213 214 215 216 216 216 217 218 221 221 221 219 217 218 219 218 219 218 221 223 219 216 219 216 214 214 210 208 207 205 205 206 207 206 205 204 201 202 204 205 208 209 210 209 207 205 202 201 201 202 204 203 203 204 204 203 203 204 203 203 202 201 199 198 197 198 200 202 201 202 205 207 206 206 205 203 202 199 198 202 211 213 215 216 215 215 212 217 218 216 211 199 197 197 196 197 199 200 203 201 203 205 205 205 206 207 208 208 208 207 206 207 205 205 205 204 205 206 211 213 215 214 213 211 212 213 212 215 218 218 217 211 207 204 202 202 203 203 204 204 204 206 207 208 208 215 213 223 233 247 264 275 281 292 302 313 322 329 335 341 346 346 346 349 353 353 353 358 360 360 361 362 366 374 383 389 391 396 402 409 415 427 438 447 469 484 501 511 522 529 533 536 536 541 542 541 545 542 544 548 551 554 555 553 552 552 552 549 547 546 545 544 543 545 547 550 551 550 549 547 547 549 551 556 560 562 564 566 570 573 578 583 588 595 599 603 606 611 614 620 627 636 638 642 647 653 658 667 675 681 687 692 695 697 698 699 700 701 704 707 709 715 724 724 734 749 764 781 793 805 820 833 848 858 877 886 895 902 906 911 916 924 928 936 943 950 956 961 963 962
877 892 906 916 928 941 964 999 1025 1047 1068 1093 1120 1137 1149 1156 1163 1170 1180 1195 1212 1225 1237 1249 1258 1268 1287 1303 1312 1324 1335 1345 1351 1363 1378 1392 1401 1408 1413 1419 1424 1426 1427 1426 1427 1427 1428 1425 1420 1418 1415 1416 1420 1422 1433 1437 1442 1451 1459 1465 1471 1478 1486 1494 1499 1502 1500 1497 1496 1495 1489 1481 1481 1479 1479 1488 1490 1498 1500 1500 1497 1492 1488 1487 1484 1484 1482 1480 1477 1471 1466 1454 1444 1423 1408 1394 1380 1359 1339 1319 1295 1276 1261 1251 1236 1225 1203 1181 1156 1142 1121 1096 1086 1059 1040 1029 1013 1004 986 961 943 933 921 912 904 894 878 863 854 848 844 845 842 840 839 837 835 831 825 819 810 803 798 796 796 799 804 811 819 828 841 851 858 866 874 879 879 865 846 821 801 784 770 762 723 699 683 623 596 586 549 489 452 408 376 346 324 282 252 239 232 225 220 214 211 211 213 214 215 214 215 217 217 219 219 218 217 216 218 218 218 219 218 219 219 220 218 210 211 212 210 211 210 207 206 206 205 205 202 203 201 203 203 205 207 208 210 210 209 207 206 204 204 204 206 205 205 204 203 203 203 204 205 204 204 203 202 201 201 202 202 203 202 202 201 202 204 206 207 210 209 203 199 204 208 214 219 217 215 210 213 213 216 218 215 210 202 199 195 197 201 204 206 205 206 207 207 207 209 209 208 208 208 208 206 205 205 206 207 207 207 207 210 211 214 214 211 211 213 213 210 210 214 216 215 213 211 207 204 203 202 203 203 203 204 203 203 205 206 209 212 215 223 230 247 262 273 282 293 307 319 330 337 343 346 347 348 351 350 357 360 364 363 363 366 367 366 371 380 386 393 397 403 410 411 421 429 450 464 488 498 515 525 536 545 552 554 551 552 553 555 558 554 554 557 560 564 568 568 567 564 563 559 555 555 553 555 556 558 558 559 559 560 559 556 554 556 553 552 553 555 559 562 567 570 572 576 584 591 597 601 604 609 617 625 631 636 641 647 651 656 663 673 682 690 695 700 704 706 707 710 715 718 722 724 726 728 734 734 748 756 771 788 799 807 823 839 855 868 877 886 894 902 909 920 927 933 940 945 949 954 961 965 964 967
868 878 892 910 925 937 949 971 1003 1025 1048 1087 1121 1139 1149 1154 1161 1171 1183 1197 1212 1226 1240 1254 1269 1276 1290 1305 1320 1333 1342 1349 1353 1369 1384 1396 1403 1408 1410 1419 1426 1428 1428 1430 1431 1432 1431 1428 1424 1422 1421 1421 1419 1425 1433 1442 1448 1457 1468 1475 1483 1491 1499 1505 1508 1510 1508 1506 1503 1497 1494 1486 1490 1491 1487 1490 1491 1495 1497 1494 1487 1480 1472 1470 1469 1469 1467 1466 1463 1453 1440 1420 1405 1399 1390 1379 1367 1350 1330 1305 1288 1270 1259 1243 1228 1213 1191 1157 1138 1118 1114 1084 1066 1047 1031 1022 1011 999 970 948 936 927 916 911 904 893 881 866 855 850 848 847 847 845 843 839 834 830 823 815 808 803 800 798 798 801 806 813 823 830 837 845 850 859 867 872 860 864 821 804 789 769 755 735 711 683 654 611 596 582 543 478 441 406 380 355 316 275 241 234 229 223 218 214 213 214 214 215 216 216 215 216 217 218 218 216 215 216 217 217 217 217 217 215 215 214 211 209 207 207 204 203 205 205 204 203 203 204 203 205 203 203 204 205 209 209 210 209 207 206 207 207 207 208 206 205 204 204 204 204 206 208 209 209 209 208 206 206 204 201 203 202 201 202 202 203 204 206 207 206 206 203 204 202 207 215 217 214 211 211 211 217 223 214 209 207 203 199 198 198 201 204 207 208 208 208 209 210 210 209 208 206 207 207 208 207 207 208 208 208 210 209 208 212 214 212 209 208 207 208 210 210 210 210 210 211 211 209 206 202 201 201 201 201 202 203 205 203 206 210 215 220 226 238 252 263 269 278 294 307 329 337 341 343 344 346 349 354 359 365 366 364 365 370 372 367 371 378 380 384 391 397 404 408 417 428 445 452 469 493 508 518 532 547 559 564 567 569 569 567 567 565 562 566 569 574 581 584 585 585 583 579 573 574 576 572 571 572 574 575 573 573 572 570 568 566 565 562 562 560 561 562 564 570 571 573 577 580 585 591 596 600 606 613 620 627 633 640 648 656 663 671 680 690 698 702 703 705 707 710 717 726 732 736 737 738 737 740 740 743 755 771 786 799 812 825 840 856 868 880 890 897 906 916 926 935 942 947 948 951 956 964 970 973 974
862 871 883 891 908 922 945 968 997 1018 1046 1077 1124 1143 1154 1158 1169 1180 1190 1199 1210 1227 1244 1258 1273 1283 1295 1309 1322 1336 1347 1352 1360 1374 1390 1399 1405 1408 1410 1416 1421 1426 1435 1434 1436 1437 1432 1430 1426 1428 1427 1427 1429 1435 1442 1449 1460 1466 1475 1485 1493 1497 1504 1512 1514 1516 1516 1511 1509 1505 1498 1493 1493 1490 1484 1485 1486 1489 1492 1491 1484 1478 1468 1464 1465 1463 1460 1454 1444 1430 1413 1402 1393 1384 1371 1362 1349 1334 1304 1295 1275 1257 1245 1230 1220 1204 1186 1156 1132 1114 1090 1070 1054 1038 1027 1014 996 980 957 944 931 924 916 911 904 889 874 863 856 852 852 849 849 848 847 841 835 828 818 813 807 802 799 797 797 799 808 819 829 834 835 836 838 845 854 860 862 833 817 791 774 750 730 715 699 687 649 617 584 550 517 474 427 392 385 355 314 268 242 230 226 221 217 214 213 214 214 216 217 216 215 215 215 216 216 217 218 218 217 216 216 215 215 214 213 211 209 206 204 204 203 205 205 205 204 203 203 204 203 203 202 200 205 201 205 206 206 205 205 205 205 206 206 207 206 205 206 207 207 208 208 210 211 212 210 209 207 206 203 201 198 198 201 201 201 203 204 207 208 206 205 206 203 204 209 218 214 212 212 220 213 214 219 212 209 209 207 203 201 202 203 205 207 208 208 208 207 207 208 208 208 209 209 209 209 208 208 208 207 207 208 210 213 217 217 212 209 206 206 206 207 207 206 206 207 209 208 207 204 202 200 198 198 198 198 199 201 201 204 210 216 225 236 245 259 269 273 277 289 307 331 336 340 343 346 346 352 357 363 365 368 366 372 373 375 373 381 382 386 391 396 396 402 409 420 435 448 461 482 497 513 523 538 553 565 574 580 583 580 579 578 577 577 581 584 590 598 599 601 603 606 605 601 596 596 593 590 584 583 583 584 583 583 585 583 578 574 572 572 571 569 570 577 578 577 576 577 580 582 586 591 596 600 607 617 624 632 639 646 655 668 676 688 696 702 705 707 710 712 717 726 735 741 745 748 749 750 750 750 752 766 780 790 803 819 835 847 859 869 881 893 901 910 920 933 942 948 951 952 955 956 964 971 974 976
858 867 879 891 904 916 936 971 991 1009 1043 1074 1099 1143 1153 1169 1180 1193 1197 1204 1218 1232 1248 1263 1271 1282 1294 1306 1319 1331 1343 1354 1363 1379 1389 1394 1399 1405 1411 1419 1425 1426 1431 1437 1436 1440 1441 1436 1438 1439 1441 1438 1440 1452 1456 1459 1466 1476 1482 1489 1496 1496 1503 1509 1519 1520 1519 1516 1509 1504 1498 1499 1494 1487 1484 1485 1485 1488 1488 1480 1481 1476 1467 1462 1461 1458 1454 1445 1432 1418 1402 1387 1372 1360 1348 1338 1330 1304 1289 1277 1257 1247 1232 1217 1211 1203 1179 1156 1132 1112 1082 1062 1046 1033 1019 1004 984 968 955 939 928 919 911 903 891 879 865 861 856 852 850 849 850 849 846 842 837 829 821 814 808 802 799 796 796 798 807 822 828 830 830 827 825 828 827 821 827 815 785 771 748 726 713 694 682 666 650 606 564 542 507 468 422 397 374 345 297 261 248 232 226 223 217 214 213 213 214 214 214 213 212 211 210 211 213 215 216 217 217 217 214 213 211 209 208 208 209 208 206 205 205 204 205 204 204 205 205 203 203 204 201 198 201 200 196 198 200 203 204 205 205 205 205 206 204 204 204 208 208 206 207 208 209 208 208 208 208 206 203 201 201 202 202 202 203 203 204 204 204 203 203 204 205 213 215 215 219 216 215 214 216 212 210 211 210 209 208 207 206 206 207 206 208 207 207 207 207 208 209 210 210 211 209 206 203 202 203 204 205 207 211 214 218 218 214 210 211 206 208 208 208 208 209 210 210 209 207 205 202 199 199 197 197 197 198 198 197 199 203 211 221 229 244 255 264 274 279 287 298 312 324 335 342 346 348 350 355 362 368 369 369 371 367 371 378 378 383 387 393 398 401 405 407 413 433 439 452 473 485 498 514 530 545 561 574 589 593 594 595 594 595 596 597 599 602 605 610 613 615 617 621 622 619 619 619 619 612 604 600 595 597 597 600 601 599 596 593 589 586 584 581 581 582 583 579 578 580 586 588 592 596 600 605 613 624 633 638 645 653 663 671 675 689 698 705 709 715 720 725 728 737 742 754 756 759 760 761 761 761 766 775 785 799 812 823 837 853 865 875 885 894 907 918 929 942 951 955 956 957 955 958 961 964 969 972
855 861 870 881 895 912 919 950 975 989 1019 1060 1086 1119 1156 1173 1183 1196 1202 1208 1218 1233 1242 1260 1278 1288 1296 1307 1320 1332 1341 1355 1367 1377 1380 1384 1393 1404 1414 1423 1429 1436 1440 1441 1445 1444 1446 1447 1449 1447 1446 1447 1454 1462 1465 1469 1477 1486 1486 1489 1490 1501 1510 1519 1520 1521 1517 1514 1512 1510 1503 1501 1494 1493 1485 1484 1481 1477 1478 1476 1474 1473 1471 1467 1462 1455 1446 1433 1419 1409 1387 1368 1350 1339 1320 1304 1288 1274 1267 1254 1245 1231 1214 1206 1199 1185 1162 1138 1108 1083 1067 1047 1037 1025 1008 996 978 963 950 937 926 914 904 893 884 879 863 855 852 850 850 852 852 851 849 842 837 831 824 818 813 809 806 804 802 803 807 820 825 825 825 821 815 805 798 800 794 783 754 740 727 710 691 679 665 649 624 596 563 546 508 460 428 382 351 322 296 261 244 236 230 226 219 216 214 213 213 212 213 211 209 208 208 210 212 214 214 216 216 215 211 210 209 207 206 205 205 206 205 203 205 203 201 200 201 204 205 205 205 203 200 199 199 200 199 199 199 202 201 201 201 202 202 203 204 204 205 205 204 204 205 206 207 207 205 204 206 205 204 202 202 203 203 203 204 202 201 201 201 199 201 202 204 209 213 212 211 214 213 211 213 211 210 209 210 210 210 210 209 208 206 206 206 207 208 209 209 210 208 209 209 207 204 202 201 201 202 203 206 210 212 217 222 218 214 213 210 208 209 209 210 209 211 214 213 212 210 208 204 203 199 199 199 198 198 198 200 200 206 215 224 234 249 261 270 276 284 293 301 312 324 333 341 347 350 355 360 366 371 376 375 373 374 374 379 385 390 394 400 405 411 415 421 433 441 451 463 484 499 508 521 540 555 570 587 598 602 605 610 611 610 610 611 614 618 621 628 628 627 627 632 632 631 631 633 634 628 620 615 612 612 614 615 615 615 614 612 609 606 608 601 602 600 599 594 590 590 592 594 598 603 604 613 623 631 638 645 652 660 670 678 684 694 703 710 717 720 729 734 739 746 753 762 767 768 768 765 772 772 774 779 789 803 815 833 849 857 866 876 886 899 914 928 939 950 960 965 965 961 960 959 960 964 966 970
854 860 863 877 893 898 909 930 961 985 996 1040 1065 1120 1139 1165 1169 1193 1200 1210 1216 1228 1240 1254 1274 1288 1296 1305 1315 1325 1335 1346 1361 1369 1378 1384 1390 1401 1415 1426 1432 1434 1439 1444 1444 1449 1450 1452 1457 1458 1456 1451 1457 1469 1475 1479 1485 1486 1490 1489 1495 1505 1519 1530 1531 1526 1521 1522 1516 1511 1508 1502 1495 1484 1471 1474 1470 1469 1471 1473 1471 1471 1472 1466 1460 1449 1439 1425 1408 1392 1372 1347 1337 1315 1299 1280 1253 1237 1232 1221 1218 1197 1194 1184 1170 1156 1122 1100 1068 1067 1053 1036 1023 1011 993 980 963 957 947 940 924 907 896 892 883 878 867 859 854 852 851 851 852 849 847 841 834 828 822 818 817 816 814 812 811 812 814 817 823 821 817 807 795 791 774 768 754 742 730 718 707 694 680 659 650 636 616 597 569 539 503 435 406 354 329 311 293 256 242 235 230 226 222 217 213 210 211 210 209 208 208 209 210 213 213 213 213 214 214 211 209 209 207 205 203 204 205 205 204 203 202 202 202 201 202 203 204 203 202 202 201 202 201 200 201 199 202 202 199 199 199 199 198 198 199 202 205 205 204 204 205 206 207 208 209 208 207 205 202 200 200 201 203 204 201 200 199 199 202 200 202 201 202 204 209 210 211 213 210 208 209 210 210 210 210 210 209 209 208 209 209 207 206 204 204 204 206 204 206 207 207 206 206 205 202 200 201 202 210 206 209 209 210 216 211 211 208 209 208 208 209 210 211 212 211 211 210 208 205 202 199 198 198 197 196 197 202 204 211 216 224 235 254 263 270 280 285 294 304 314 326 335 346 354 359 363 366 368 372 378 382 381 381 383 388 392 397 401 409 415 423 428 438 447 455 464 476 494 509 521 532 545 560 578 592 603 611 623 629 629 630 630 631 633 636 639 642 644 642 644 638 638 637 640 642 645 640 635 627 625 623 626 626 626 624 620 617 616 616 616 616 612 611 613 613 605 595 594 596 600 606 613 621 629 634 640 642 650 656 663 669 675 691 701 711 719 727 733 741 747 759 766 771 774 773 773 768 773 773 778 787 799 811 822 838 855 867 877 886 897 913 923 935 947 959 968 970 968 968 966 962 961 966 969 974
859 862 868 883 894 901 912 926 952 964 990 1018 1044 1087 1121 1151 1174 1198 1206 1211 1219 1228 1242 1261 1273 1283 1296 1305 1311 1321 1332 1342 1351 1362 1373 1382 1389 1404 1416 1429 1434 1436 1441 1446 1450 1450 1454 1458 1458 1461 1460 1460 1467 1477 1483 1485 1488 1493 1494 1496 1506 1517 1529 1543 1544 1542 1537 1532 1523 1520 1502 1502 1494 1475 1465 1462 1463 1462 1468 1467 1467 1466 1460 1451 1440 1432 1420 1405 1385 1367 1345 1327 1315 1303 1279 1248 1229 1221 1202 1180 1154 1136 1129 1128 1109 1095 1091 1070 1059 1041 1032 1016 1008 994 980 969 964 955 943 933 920 903 894 889 885 879 870 863 858 856 855 854 851 847 842 838 832 827 822 819 819 819 819 819 817 817 817 818 821 820 811 800 786 769 753 741 728 712 709 701 691 677 659 648 638 624 611 587 563 533 458 413 384 349 325 300 289 263 239 229 225 223 218 214 212 209 206 206 207 209 210 211 212 214 214 214 215 216 218 216 212 209 206 206 204 202 203 204 204 203 202 203 202 202 204 204 203 202 201 201 201 199 199 199 203 203 203 202 200 200 196 194 194 195 198 199 202 202 204 206 207 207 208 209 210 209 207 205 203 202 202 202 202 204 206 202 202 202 202 203 206 207 207 206 209 208 208 208 208 209 209 209 209 208 207 207 209 210 211 211 211 208 202 197 196 200 200 203 206 208 212 212 210 209 207 206 205 207 210 215 215 215 214 211 214 212 209 207 207 209 207 205 205 207 210 212 212 210 206 203 200 199 198 197 196 196 202 208 217 224 233 244 257 266 274 283 284 297 311 325 336 344 353 361 362 364 367 373 380 383 385 391 395 399 399 405 409 417 421 431 435 442 450 459 469 477 481 498 514 527 540 554 566 584 600 612 621 635 648 654 655 655 655 655 653 651 650 653 651 650 653 651 652 652 652 654 651 648 646 641 639 641 641 638 634 630 626 623 622 621 624 626 624 623 618 607 598 593 595 600 608 619 629 636 643 644 647 652 657 664 671 680 690 699 708 717 726 734 742 751 757 774 777 781 781 779 779 780 780 788 797 809 822 835 836 859 879 884 890 903 918 929 942 959 967 974 976 976 972 970 970 972 977 979 979
864 869 873 886 893 903 921 937 954 967 977 991 1011 1082 1104 1132 1158 1177 1196 1211 1221 1229 1244 1260 1267 1274 1286 1295 1304 1318 1330 1340 1350 1361 1367 1375 1386 1407 1417 1426 1431 1437 1440 1446 1446 1450 1452 1458 1455 1461 1459 1466 1481 1483 1484 1485 1487 1490 1499 1503 1520 1529 1538 1547 1550 1550 1549 1540 1531 1523 1510 1498 1488 1471 1462 1458 1455 1454 1454 1455 1458 1457 1443 1422 1411 1401 1385 1375 1357 1340 1325 1311 1301 1272 1251 1220 1200 1150 1131 1120 1124 1095 1098 1088 1085 1075 1066 1055 1044 1032 1022 1013 995 973 961 961 949 942 934 923 912 903 897 892 887 880 868 861 857 854 853 852 849 846 841 836 832 827 825 823 823 823 824 824 823 822 820 820 819 820 812 798 778 753 739 724 711 700 690 681 671 659 647 635 623 608 592 575 541 506 453 414 369 338 323 301 290 259 230 223 219 219 218 215 211 208 207 207 207 207 207 208 210 211 210 211 214 218 218 217 217 211 207 204 203 199 203 204 202 204 203 203 204 204 206 206 205 203 202 201 200 200 200 204 204 205 204 204 204 204 205 205 197 199 199 200 203 206 208 210 212 213 210 208 206 205 205 203 203 202 202 202 203 207 209 207 204 204 205 208 209 212 212 209 207 207 209 207 209 210 210 208 206 206 208 209 210 210 209 210 208 205 202 196 190 195 197 203 209 211 213 215 214 212 209 209 210 209 215 216 219 219 217 212 213 212 211 212 212 209 204 202 204 206 208 210 210 209 209 207 205 199 199 199 200 201 204 210 218 225 237 245 255 270 276 282 290 302 316 328 342 352 359 362 364 365 368 373 377 387 393 399 405 413 414 415 418 427 434 442 450 449 463 474 480 488 501 513 522 534 538 556 570 582 600 613 627 641 651 660 666 670 671 672 669 664 662 664 662 661 665 664 663 664 662 664 662 661 661 659 655 651 649 646 643 636 638 636 634 633 632 632 630 625 616 608 601 595 597 605 615 627 635 641 647 652 656 659 662 668 678 687 694 702 709 718 727 736 747 757 767 773 784 784 788 789 791 793 793 800 810 822 831 836 850 872 888 889 894 903 921 937 958 967 969 973 975 982 981 979 978 980 983 982 983
868 875 881 887 893 905 914 937 956 966 981 990 1017 1054 1090 1112 1140 1161 1177 1198 1213 1226 1241 1255 1265 1272 1280 1291 1305 1324 1331 1336 1345 1357 1359 1375 1389 1401 1410 1419 1426 1431 1435 1439 1441 1444 1448 1457 1463 1459 1464 1475 1485 1490 1489 1493 1490 1493 1501 1507 1515 1527 1536 1547 1551 1554 1552 1545 1534 1520 1505 1493 1485 1475 1465 1457 1441 1436 1435 1434 1434 1430 1420 1404 1389 1376 1363 1359 1331 1312 1307 1300 1256 1243 1227 1180 1127 1107 1102 1106 1093 1082 1076 1071 1060 1052 1039 1026 1015 1007 1001 979 972 961 957 949 941 926 920 910 906 902 899 894 890 878 868 863 860 858 855 851 849 848 847 842 838 831 827 826 826 824 823 822 823 823 821 818 814 812 803 786 758 737 729 715 700 691 681 658 643 632 623 613 598 591 579 547 539 507 433 388 364 338 317 301 280 244 227 220 217 217 215 212 211 210 209 208 209 208 207 208 211 210 209 209 209 209 221 217 212 212 207 205 202 201 202 204 205 204 204 204 205 204 207 209 210 209 207 206 204 201 200 201 204 202 199 201 203 203 204 208 203 202 201 202 204 205 206 211 213 213 212 209 205 203 201 200 199 199 200 202 203 208 209 209 203 202 204 206 210 212 208 208 207 208 209 210 210 212 210 208 208 209 211 211 209 206 203 203 203 201 201 196 195 195 198 201 205 211 211 213 210 213 209 210 214 218 219 220 221 218 218 218 218 218 217 216 214 210 208 207 208 208 210 210 209 208 208 206 205 203 200 201 202 202 206 214 219 226 234 249 260 269 278 284 291 305 318 332 348 358 366 366 369 371 373 378 386 395 398 413 416 421 420 426 430 442 453 458 457 465 487 498 497 507 531 535 533 545 561 572 574 588 604 615 629 642 653 663 672 677 680 681 680 678 680 677 675 675 681 679 679 679 676 676 675 674 673 669 664 658 654 652 649 647 646 645 643 641 641 638 633 626 621 614 606 604 605 610 620 631 639 644 649 653 658 663 670 674 679 685 691 700 712 724 737 744 753 768 779 785 791 793 798 801 804 803 803 808 818 830 843 850 861 873 888 894 904 912 922 948 957 967 973 974 984 989 987 985 982 982 984 985 987
874 880 887 891 894 901 914 930 950 968 986 1005 1015 1051 1069 1096 1119 1138 1152 1177 1201 1214 1226 1240 1253 1264 1274 1288 1305 1317 1327 1333 1341 1348 1354 1365 1383 1394 1401 1409 1417 1423 1427 1432 1438 1443 1449 1457 1463 1468 1472 1478 1493 1500 1501 1499 1494 1497 1497 1506 1515 1526 1543 1549 1555 1553 1553 1549 1534 1518 1500 1490 1480 1470 1459 1445 1428 1415 1412 1412 1408 1405 1394 1382 1367 1345 1304 1287 1277 1279 1266 1249 1235 1198 1177 1132 1109 1102 1093 1085 1079 1069 1056 1045 1030 1027 1016 1004 994 986 980 968 957 955 947 941 931 918 913 909 908 907 902 896 889 879 868 863 861 861 861 858 856 854 851 849 848 842 837 833 829 827 824 822 821 820 817 812 808 803 793 777 758 740 727 713 696 678 662 641 625 622 611 593 577 560 549 536 527 486 433 380 367 336 315 283 266 231 221 221 215 213 213 211 209 209 210 210 211 211 211 213 214 214 211 212 211 207 209 216 212 207 208 206 203 201 199 201 200 200 201 201 201 201 203 204 207 210 210 210 209 205 201 201 204 199 198 199 200 202 204 204 202 202 201 203 203 203 204 207 209 210 209 207 207 205 203 202 200 199 199 200 199 200 204 203 203 203 206 211 216 212 208 205 204 208 209 211 212 211 211 210 208 209 210 208 205 202 200 200 203 204 201 197 194 194 196 199 201 205 205 206 207 207 208 215 222 222 220 219 219 216 216 218 212 213 211 211 210 210 211 211 211 210 210 210 209 207 207 206 203 200 199 201 201 203 206 215 220 225 231 244 258 273 281 284 298 311 331 342 356 365 366 371 371 374 379 386 395 404 406 412 421 428 432 439 451 460 473 477 476 483 496 514 524 533 543 550 555 556 574 581 582 599 614 628 638 648 657 665 674 680 684 686 686 686 686 686 686 687 687 690 689 692 692 687 685 686 686 684 679 673 661 659 656 656 657 656 654 652 650 646 644 636 627 619 613 613 614 616 626 637 646 649 650 652 655 661 667 672 677 681 688 700 717 733 743 749 759 771 784 791 800 806 808 810 815 819 819 826 834 839 849 855 866 879 891 900 911 921 930 945 954 969 962 968 977 986 987 985 984 985 985 987 991
883 886 891 892 896 903 916 931 946 968 987 1003 1023 1042 1053 1068 1089 1116 1127 1143 1166 1195 1211 1222 1239 1253 1267 1280 1290 1302 1313 1320 1330 1340 1349 1358 1371 1383 1396 1405 1410 1421 1427 1434 1441 1449 1455 1464 1472 1477 1482 1493 1494 1502 1504 1500 1500 1501 1504 1507 1514 1528 1533 1547 1551 1554 1555 1544 1540 1525 1504 1487 1474 1463 1447 1427 1412 1400 1398 1392 1371 1356 1355 1352 1323 1290 1290 1267 1272 1263 1233 1204 1158 1141 1125 1113 1098 1090 1085 1077 1067 1047 1028 1017 1012 1008 1000 987 983 974 964 953 947 948 941 934 926 921 918 915 912 909 905 899 893 882 870 865 866 867 868 866 866 862 858 853 851 849 846 840 834 829 824 821 822 822 818 810 802 794 785 773 756 743 731 716 701 685 669 640 625 613 600 578 558 544 541 531 517 472 424 384 358 334 315 277 248 229 222 218 212 212 214 213 210 210 213 213 213 214 214 214 214 213 214 214 215 214 212 211 208 207 208 206 204 202 201 201 200 201 202 202 201 199 202 204 205 208 209 208 206 204 204 203 203 201 200 200 201 203 204 205 205 203 201 202 201 200 200 201 204 205 202 201 201 203 203 202 201 200 202 203 201 200 201 200 203 203 210 214 215 213 205 200 201 207 212 211 211 211 210 209 206 205 205 205 203 200 198 198 199 204 202 199 196 194 188 194 199 200 204 206 207 208 212 217 212 218 213 210 210 215 212 206 204 204 206 208 209 211 211 212 212 212 211 209 208 205 202 201 199 199 202 203 203 204 209 216 221 224 229 240 257 277 290 299 306 320 338 346 359 366 366 369 376 379 385 392 404 414 413 423 429 437 449 462 471 481 489 491 494 510 521 531 542 553 558 563 568 575 583 595 605 617 625 635 650 667 669 678 685 694 701 704 701 696 694 699 700 701 702 700 701 702 706 702 700 702 703 705 702 692 682 672 669 667 668 669 669 665 662 658 654 648 637 626 620 619 621 626 634 644 649 652 651 652 657 660 666 670 676 681 690 702 719 733 740 748 759 774 787 800 809 815 817 824 828 838 838 842 846 853 856 861 870 876 895 909 922 933 940 945 952 962 966 970 971 974 974 975 979 981 983 988 991
889 892 892 893 896 904 915 922 942 967 990 1013 1022 1035 1049 1058 1067 1094 1111 1126 1138 1161 1190 1209 1226 1240 1256 1277 1285 1294 1302 1308 1316 1329 1343 1354 1364 1373 1386 1400 1407 1416 1426 1434 1445 1453 1461 1466 1476 1486 1490 1492 1498 1501 1504 1504 1507 1509 1512 1514 1521 1524 1523 1520 1530 1538 1542 1541 1536 1524 1510 1490 1468 1446 1428 1414 1402 1390 1370 1332 1311 1307 1308 1299 1297 1281 1271 1272 1250 1215 1188 1148 1136 1119 1103 1095 1091 1082 1074 1060 1044 1024 1014 1007 1002 993 987 978 971 962 954 949 946 942 938 934 929 926 922 920 917 913 909 901 893 883 874 871 871 873 874 873 871 869 865 859 856 855 852 846 840 836 826 822 822 822 820 812 799 789 778 765 753 743 729 719 703 681 658 638 627 618 599 577 555 542 526 515 507 447 414 381 354 338 311 274 255 225 212 209 205 208 212 212 205 209 212 212 212 211 211 210 209 211 216 217 217 217 212 211 209 209 206 205 205 205 204 199 199 199 200 202 201 199 199 200 201 203 204 203 202 199 203 204 205 203 201 201 204 207 205 204 205 200 200 201 201 200 200 201 203 204 200 199 200 201 202 201 201 202 206 205 205 205 205 202 202 205 214 214 210 213 205 201 201 209 212 212 212 212 211 209 203 204 204 204 202 202 201 200 200 201 200 198 195 194 185 189 203 204 207 209 210 212 215 212 212 214 208 204 206 203 204 204 202 202 204 207 209 209 210 213 215 215 215 213 213 209 203 199 197 198 200 201 204 206 210 215 219 225 233 242 265 288 298 310 319 331 345 352 360 368 370 374 380 385 391 401 410 423 426 435 445 462 471 482 494 500 509 520 526 533 538 548 555 563 568 572 582 592 603 607 618 626 635 647 660 670 675 687 700 707 714 718 719 718 718 720 722 720 720 720 716 717 718 717 719 721 719 714 710 709 700 693 690 689 689 686 682 676 668 662 659 655 648 641 634 631 634 638 643 650 658 660 663 666 671 671 670 673 675 682 694 709 721 733 743 752 764 776 787 802 810 821 828 834 841 847 847 853 855 857 862 866 871 881 897 916 928 936 944 946 952 958 963 967 969 971 970 971 976 980 985 990 992
894 894 894 896 899 906 913 926 944 967 988 1010 1025 1033 1045 1053 1065 1079 1105 1119 1131 1146 1169 1193 1213 1227 1240 1259 1273 1286 1297 1302 1310 1322 1338 1346 1356 1364 1377 1392 1405 1416 1424 1435 1440 1448 1466 1472 1483 1489 1492 1498 1500 1502 1504 1507 1511 1511 1513 1513 1514 1521 1515 1516 1518 1524 1537 1534 1529 1524 1511 1492 1468 1443 1432 1413 1391 1365 1335 1306 1305 1280 1272 1266 1280 1273 1259 1229 1204 1184 1152 1134 1114 1102 1097 1088 1083 1069 1059 1037 1022 1012 1004 1000 990 982 975 969 960 953 948 944 941 938 936 933 931 928 924 923 921 915 907 904 895 886 880 877 876 875 875 874 873 874 873 869 867 863 859 858 850 840 830 826 825 824 822 813 798 782 771 761 749 737 725 714 697 678 661 648 632 626 615 598 575 553 526 502 483 442 418 375 349 333 310 277 247 223 210 202 203 208 207 203 203 205 207 207 208 208 208 210 211 212 216 219 216 215 213 210 207 211 208 206 204 205 202 199 200 197 198 196 196 198 200 201 202 203 202 201 199 200 204 204 205 202 202 204 207 209 208 208 205 202 200 201 202 201 201 203 202 201 200 198 198 198 201 198 199 204 208 209 208 206 203 202 206 208 207 222 222 217 211 210 211 212 212 215 211 211 210 208 204 205 203 203 203 203 202 202 202 200 199 199 196 188 187 185 196 203 208 212 215 213 215 214 210 207 207 205 204 203 201 199 201 203 205 207 205 207 211 212 213 215 215 215 215 215 212 208 205 203 203 203 205 209 213 216 221 229 243 261 277 291 297 311 326 334 342 353 363 368 375 380 386 395 402 411 426 429 436 449 460 476 487 497 511 517 529 541 550 553 553 558 566 576 585 587 594 605 617 631 633 638 648 656 669 679 694 708 718 727 726 728 733 732 732 734 736 736 735 740 738 734 733 736 736 735 732 729 724 720 717 713 708 704 699 693 687 681 673 667 663 660 655 648 645 644 643 646 650 657 669 671 677 678 682 686 687 685 681 688 699 711 721 734 751 761 767 776 790 801 811 821 833 843 849 854 854 857 859 862 868 875 881 888 900 918 931 938 943 948 954 956 953 958 960 962 967 969 973 979 982 986 993
903 903 906 905 906 912 921 931 940 965 988 1008 1016 1028 1037 1050 1060 1073 1090 1113 1127 1143 1161 1183 1200 1210 1220 1234 1256 1276 1289 1296 1304 1312 1323 1337 1350 1364 1377 1391 1404 1412 1419 1430 1443 1452 1461 1474 1480 1488 1496 1501 1505 1507 1508 1511 1512 1513 1512 1509 1511 1515 1520 1514 1520 1523 1525 1523 1521 1520 1508 1495 1473 1451 1434 1408 1377 1356 1309 1302 1280 1266 1266 1254 1227 1221 1166 1173 1166 1149 1133 1113 1099 1094 1085 1077 1066 1045 1035 1023 1011 1002 995 987 977 968 963 958 952 946 942 941 939 936 935 934 932 929 927 925 921 917 910 906 897 886 882 881 879 877 876 875 875 875 875 873 872 868 862 854 847 839 834 832 832 832 828 818 806 791 777 764 750 738 727 716 702 682 664 650 637 632 617 603 595 575 544 501 465 426 390 367 344 329 303 274 244 225 212 207 207 207 208 203 201 203 206 208 208 206 205 207 210 210 211 222 218 216 217 212 208 209 210 210 208 207 206 202 198 197 195 197 197 199 201 202 203 203 201 201 201 202 203 204 204 204 205 207 209 208 208 208 205 202 202 203 202 202 200 200 201 204 204 201 199 199 199 201 199 203 204 207 205 206 206 207 207 211 215 216 219 216 217 219 222 219 218 213 211 211 207 208 204 203 202 201 201 200 200 201 199 199 197 197 197 188 183 191 195 205 215 220 219 216 212 210 210 207 205 204 201 200 199 196 195 198 205 204 203 204 206 208 209 210 210 211 214 218 220 218 214 208 206 206 207 208 212 221 229 238 252 270 289 294 298 312 333 346 350 359 368 372 379 388 396 407 411 428 432 437 464 477 484 492 506 517 526 533 539 547 554 561 567 573 582 594 603 606 614 629 635 639 646 655 670 680 687 700 710 719 727 733 740 745 749 751 752 750 751 755 755 749 744 741 740 742 743 742 740 739 736 734 730 724 717 710 703 698 694 688 682 677 672 668 661 653 648 647 647 650 655 665 674 683 687 690 694 697 698 697 697 699 707 718 733 741 755 766 772 781 792 803 813 822 833 843 851 858 858 863 865 868 874 879 886 892 900 912 924 933 942 946 949 953 951 951 953 959 963 966 971 977 983 987 991
906 908 909 908 911 915 924 934 946 962 980 994 1006 1019 1030 1043 1059 1071 1086 1106 1131 1152 1166 1184 1195 1204 1212 1222 1240 1262 1283 1298 1303 1312 1322 1332 1346 1362 1380 1391 1404 1409 1419 1429 1444 1461 1470 1476 1483 1489 1494 1497 1500 1499 1504 1504 1507 1501 1502 1507 1503 1505 1517 1516 1518 1519 1517 1514 1514 1512 1501 1488 1465 1446 1424 1386 1362 1330 1302 1273 1268 1263 1253 1224 1198 1167 1165 1157 1147 1132 1118 1107 1096 1084 1074 1062 1051 1036 1023 1012 1002 994 983 975 966 961 954 948 944 942 939 938 935 934 933 932 930 929 928 927 923 921 914 907 897 886 880 878 877 876 874 874 876 878 876 874 872 868 862 853 849 844 845 845 846 846 839 830 819 806 791 776 761 750 740 726 710 688 670 653 643 635 622 607 604 571 547 485 443 414 380 360 341 314 278 248 230 222 215 212 210 208 206 201 200 202 205 209 210 209 208 209 208 210 209 215 216 214 212 211 211 208 209 210 210 210 203 200 199 203 198 197 198 200 201 202 201 199 199 199 199 201 202 203 203 204 204 205 207 207 206 206 205 202 199 199 201 202 204 207 208 208 209 209 207 207 206 205 201 200 203 207 206 207 210 207 208 210 209 206 210 206 212 217 215 219 215 209 206 204 208 210 212 204 200 200 199 197 198 197 199 203 199 199 201 191 190 192 197 209 218 220 216 212 210 206 206 206 205 204 203 201 203 201 201 201 209 207 204 201 200 203 205 205 206 209 213 216 216 213 211 209 208 207 208 210 217 227 234 249 261 272 289 303 317 328 343 355 360 366 368 375 389 400 411 414 431 446 439 475 490 498 503 514 523 531 540 547 551 554 562 566 574 580 590 596 608 618 627 635 644 653 663 675 686 697 713 723 732 741 749 754 755 760 765 769 770 773 773 774 769 760 750 743 740 742 743 745 745 746 745 742 739 733 725 719 714 710 705 700 695 691 689 683 672 657 652 650 650 656 663 672 680 689 698 705 710 712 710 707 704 709 715 725 737 749 762 772 779 786 794 803 812 823 833 840 845 854 854 863 868 873 877 881 885 887 893 901 912 925 928 939 944 943 944 945 953 955 958 961 964 970 978 985 988
905 903 904 909 915 922 928 934 946 955 973 989 1000 1013 1026 1044 1060 1073 1093 1114 1133 1147 1162 1174 1189 1201 1213 1227 1245 1262 1280 1294 1307 1313 1321 1331 1345 1368 1382 1402 1405 1413 1421 1429 1446 1462 1477 1479 1482 1484 1488 1492 1498 1497 1499 1501 1505 1505 1503 1501 1500 1500 1501 1505 1511 1510 1505 1507 1502 1495 1488 1471 1453 1439 1409 1379 1357 1324 1293 1267 1243 1248 1225 1196 1170 1169 1146 1139 1128 1118 1108 1096 1084 1077 1067 1054 1039 1023 1013 1004 994 984 978 969 963 957 949 943 937 935 936 936 935 933 932 931 930 928 928 927 926 921 916 908 895 889 884 883 882 880 879 878 878 876 874 872 869 864 859 852 846 843 844 849 851 852 846 838 832 825 812 797 783 768 752 736 718 699 680 663 651 641 627 609 604 574 522 444 427 383 367 354 341 305 264 239 229 221 214 210 208 210 207 204 202 202 204 207 208 209 209 211 211 214 210 213 211 210 206 207 205 205 206 205 205 206 202 199 200 201 202 199 202 202 202 202 200 198 198 198 200 200 201 203 204 206 205 204 203 204 203 202 201 200 201 201 202 203 203 204 204 206 208 209 208 207 205 205 204 204 205 208 209 206 206 203 209 209 206 207 206 208 212 219 214 213 216 210 204 202 207 213 208 211 205 199 203 201 200 204 208 207 204 201 198 192 193 193 200 207 215 214 214 212 205 204 202 202 202 201 200 200 202 209 212 210 214 210 207 202 202 202 203 203 204 205 209 211 211 210 208 208 208 211 212 219 222 232 243 252 266 277 306 317 324 335 350 358 367 371 371 381 398 413 423 428 441 457 472 483 498 501 507 516 529 539 549 551 556 563 575 578 582 587 593 602 610 624 634 646 655 663 675 686 695 709 716 727 742 754 763 766 771 778 782 785 786 789 791 788 784 778 770 762 755 751 748 746 746 747 746 745 743 738 734 729 724 719 713 707 699 694 692 691 678 665 655 652 654 662 673 680 688 697 707 715 721 723 721 717 713 713 718 728 742 755 766 778 785 791 800 804 812 818 823 827 833 844 844 858 864 871 879 885 885 886 891 898 904 913 920 932 936 941 942 943 945 947 950 954 957 962 968 976 979
905 904 905 910 919 925 931 936 943 957 969 984 997 1007 1020 1033 1045 1065 1100 1117 1132 1139 1153 1167 1187 1203 1222 1233 1246 1263 1280 1295 1307 1319 1326 1333 1344 1363 1381 1396 1411 1416 1421 1428 1444 1461 1470 1475 1478 1481 1485 1491 1492 1498 1501 1503 1507 1508 1503 1495 1490 1492 1496 1498 1502 1498 1501 1500 1496 1488 1478 1461 1443 1423 1392 1378 1331 1306 1280 1248 1240 1225 1201 1189 1165 1153 1136 1116 1111 1098 1088 1077 1071 1067 1057 1041 1028 1014 1004 997 989 980 974 972 965 954 943 940 935 933 932 933 933 934 935 934 932 930 930 928 924 919 911 903 898 891 885 883 883 883 882 881 879 877 875 869 862 859 856 852 849 847 848 852 855 856 851 845 839 832 822 811 798 781 761 742 724 702 688 677 662 651 635 618 598 546 499 433 379 375 359 354 315 272 250 234 233 223 217 214 211 211 209 208 206 206 208 209 210 210 211 215 215 213 215 212 207 206 203 202 203 202 203 203 204 205 205 202 199 201 202 203 201 201 202 202 202 198 198 199 199 202 203 204 204 204 203 202 200 201 200 198 197 197 199 199 201 204 206 204 205 206 207 207 206 205 205 205 200 199 206 207 201 199 201 208 206 205 205 200 209 210 207 206 208 207 204 203 202 202 205 208 207 206 203 199 199 199 203 204 207 207 204 206 201 195 195 200 206 213 212 218 216 213 205 204 203 202 202 202 201 201 206 207 209 211 211 212 211 207 205 202 202 202 203 205 206 210 209 209 209 210 211 214 222 230 237 249 250 268 271 290 311 319 327 340 350 360 369 369 377 391 399 418 430 440 453 468 479 492 497 506 514 523 533 544 550 555 562 571 575 584 588 594 598 603 616 628 640 654 665 671 682 694 705 718 726 737 747 759 765 770 779 788 795 800 798 800 799 799 798 792 789 783 775 769 761 755 750 747 746 745 744 742 739 736 731 722 714 707 701 698 696 691 678 663 654 651 654 658 668 677 689 701 709 716 723 728 730 725 721 725 733 743 752 761 770 780 787 792 795 801 806 810 814 820 824 833 833 846 856 869 877 882 888 890 891 893 897 901 910 921 927 933 936 940 942 945 947 950 953 955 959 967 973
911 909 911 915 921 927 932 937 945 955 967 984 999 1008 1019 1026 1039 1051 1082 1111 1129 1139 1148 1167 1187 1202 1218 1234 1249 1262 1277 1304 1315 1327 1332 1342 1350 1369 1381 1396 1407 1411 1418 1425 1442 1456 1469 1473 1479 1481 1489 1492 1495 1501 1504 1503 1505 1507 1504 1487 1482 1482 1485 1492 1491 1490 1487 1489 1487 1483 1471 1455 1430 1399 1379 1340 1321 1304 1266 1245 1232 1204 1189 1172 1143 1127 1108 1099 1092 1081 1071 1064 1060 1056 1046 1028 1012 1002 999 990 990 983 976 964 957 948 943 937 933 932 932 932 933 934 936 937 938 936 934 931 927 921 913 905 900 892 888 888 888 887 886 884 881 879 876 870 865 861 856 854 854 854 859 861 863 864 859 853 845 836 828 817 807 793 771 748 727 712 697 685 673 663 650 621 594 546 493 440 375 359 356 327 295 252 247 233 221 215 213 212 211 212 212 211 210 211 211 211 211 213 214 212 212 216 218 213 207 204 204 202 201 201 201 201 202 205 203 201 203 202 202 204 203 205 207 206 205 204 196 193 195 196 202 205 206 205 205 205 204 204 201 198 197 197 199 199 199 200 203 206 205 205 204 203 203 202 205 204 204 202 202 204 207 206 209 209 207 207 205 204 206 204 206 204 207 200 200 201 201 201 208 209 204 203 202 200 201 203 207 211 211 209 205 206 204 198 201 209 215 218 218 214 214 220 215 210 205 202 202 199 199 202 202 203 202 205 206 209 212 211 210 206 205 205 208 210 210 210 209 214 216 215 222 228 236 245 257 264 270 281 287 298 313 321 330 338 358 365 370 378 388 396 416 428 436 444 461 474 486 499 505 512 523 532 541 553 557 565 568 576 585 590 595 602 605 615 623 638 648 659 670 678 689 701 712 719 734 744 758 767 772 778 786 797 806 811 813 814 815 819 818 816 812 803 793 788 779 770 763 757 753 750 749 748 742 735 728 721 714 710 706 702 699 694 680 667 658 652 653 657 663 675 689 700 709 717 725 730 734 736 737 742 747 757 763 770 780 788 793 796 799 803 806 808 810 812 819 826 826 840 854 863 870 880 887 891 890 891 894 904 909 911 917 923 931 933 939 943 946 950 952 950 957 961 967
913 912 914 916 920 925 931 939 948 956 969 982 997 1006 1017 1029 1035 1043 1075 1110 1129 1141 1154 1167 1184 1201 1214 1232 1253 1269 1287 1313 1322 1329 1338 1349 1363 1377 1388 1395 1404 1409 1419 1428 1439 1458 1464 1463 1473 1480 1488 1490 1491 1495 1500 1501 1502 1501 1498 1488 1480 1476 1478 1481 1484 1484 1480 1478 1476 1474 1463 1446 1409 1394 1369 1333 1319 1294 1261 1231 1211 1184 1168 1148 1130 1102 1103 1084 1076 1068 1060 1054 1050 1045 1034 1017 1003 994 988 985 986 974 963 957 951 949 942 937 933 932 931 932 932 934 938 942 944 943 938 931 925 920 911 904 897 892 889 889 890 889 889 888 887 884 880 876 871 866 862 859 861 865 870 874 873 870 865 856 849 840 831 820 807 791 770 750 735 719 700 690 678 665 652 628 599 553 494 442 374 349 333 299 267 242 230 222 211 210 211 211 211 212 212 211 212 214 216 213 212 209 208 208 211 212 219 213 207 206 205 203 199 197 196 198 200 204 201 201 204 203 204 204 205 205 206 204 202 201 201 197 196 197 201 202 208 209 208 208 206 204 202 200 197 196 196 197 197 198 200 203 209 203 205 205 204 206 204 201 202 200 200 201 208 212 209 208 208 206 203 205 206 205 209 207 195 197 201 201 202 203 207 211 212 205 205 208 200 200 204 210 216 214 210 209 208 205 209 216 217 214 217 220 223 220 219 215 210 209 207 205 204 205 205 204 204 203 206 206 212 212 212 211 213 213 215 215 215 216 215 217 219 223 232 239 246 257 266 270 276 284 296 306 315 323 332 344 360 375 382 388 399 413 420 429 439 452 469 484 495 504 513 521 528 538 548 559 567 571 572 582 590 594 599 607 617 624 636 647 657 669 677 685 698 712 724 734 738 748 761 771 777 783 792 803 813 821 825 829 833 835 836 834 828 817 811 805 795 786 776 771 763 762 759 755 747 737 731 725 721 717 713 710 706 701 691 679 667 655 652 660 663 674 686 696 707 719 728 735 737 738 746 749 758 763 770 777 785 792 797 800 803 806 809 809 809 810 816 824 824 838 853 859 871 877 882 887 888 886 889 900 905 908 911 915 921 928 930 936 942 947 947 950 953 956 962
916 917 918 919 922 925 930 940 952 962 972 981 991 996 1006 1019 1031 1047 1078 1108 1126 1141 1156 1171 1192 1206 1220 1235 1254 1270 1290 1310 1324 1328 1336 1353 1372 1379 1389 1397 1406 1410 1423 1428 1438 1448 1457 1464 1471 1480 1488 1488 1490 1492 1494 1498 1499 1499 1497 1489 1482 1479 1469 1468 1476 1476 1469 1466 1464 1461 1449 1414 1397 1368 1357 1325 1305 1291 1242 1211 1206 1178 1145 1140 1113 1098 1084 1070 1064 1056 1050 1044 1041 1035 1024 1007 994 991 993 987 976 959 959 956 951 947 946 940 936 936 936 937 938 939 942 942 943 946 940 931 919 912 908 902 898 895 893 892 892 892 891 889 888 886 884 881 876 872 868 866 869 873 879 880 880 878 870 861 848 833 818 805 793 781 763 746 729 714 697 683 667 653 641 619 591 548 496 446 369 335 316 299 267 231 219 217 213 211 212 212 212 212 214 215 217 218 219 220 217 216 210 208 210 210 212 213 207 202 201 202 202 199 198 200 202 202 204 204 206 206 206 204 205 205 206 203 202 201 201 198 195 195 196 200 204 205 207 206 206 204 203 201 201 201 202 202 200 196 195 196 204 203 204 204 205 207 205 206 205 206 204 206 216 219 212 206 208 212 207 209 212 209 207 197 202 201 200 201 202 203 206 213 209 208 206 202 198 195 199 201 204 206 211 209 209 211 215 216 213 215 215 218 221 223 219 217 214 212 216 210 209 209 207 205 205 205 205 206 210 209 208 211 212 215 216 215 216 220 218 218 222 225 236 248 255 262 271 275 284 294 303 315 319 330 339 352 366 382 391 399 410 420 427 436 448 463 478 488 496 507 515 524 533 545 554 564 570 575 579 587 595 603 606 618 627 636 651 659 672 679 688 695 706 718 730 737 742 747 758 771 776 787 796 808 819 830 838 845 849 849 849 842 837 834 827 819 810 795 780 773 772 769 764 758 751 744 740 736 731 725 720 717 715 712 703 693 680 667 663 663 666 673 684 693 706 718 729 736 741 745 751 761 768 772 779 785 790 795 798 801 803 807 810 811 811 812 814 822 822 833 846 854 856 865 878 884 888 885 884 886 885 894 899 903 908 911 921 928 937 945 948 952 954 954 960
919 923 927 930 932 933 936 942 951 960 972 982 987 992 998 1011 1029 1050 1074 1101 1119 1138 1157 1176 1194 1211 1226 1240 1254 1274 1290 1310 1321 1329 1339 1356 1368 1385 1396 1402 1406 1412 1416 1425 1438 1442 1448 1456 1465 1476 1483 1486 1488 1489 1491 1494 1496 1497 1495 1481 1477 1462 1462 1459 1458 1459 1459 1456 1449 1442 1421 1395 1378 1362 1346 1325 1302 1279 1241 1204 1180 1162 1150 1113 1101 1086 1070 1059 1047 1045 1042 1039 1034 1026 1012 998 990 983 978 969 958 954 957 954 949 950 945 942 941 940 942 944 945 945 944 943 946 944 939 930 917 909 909 901 901 897 896 896 897 899 899 899 894 890 886 882 878 875 871 867 870 875 880 880 882 882 874 863 847 835 819 806 788 770 753 738 720 706 691 676 659 641 622 606 581 543 481 425 365 330 306 277 247 232 226 218 215 214 214 212 213 212 211 212 214 217 220 217 215 214 215 210 207 204 202 207 206 205 205 205 206 206 209 207 206 205 205 204 204 204 205 206 207 209 206 204 203 199 195 194 193 198 199 201 203 205 205 207 204 204 204 204 200 200 201 204 204 200 199 198 199 202 201 204 205 203 204 201 203 205 208 212 218 209 206 204 208 204 213 216 212 210 202 206 203 200 200 202 204 206 208 212 209 207 206 202 200 197 199 201 199 201 205 211 212 214 220 213 210 207 208 215 219 220 219 211 215 212 216 218 220 217 213 211 212 210 206 207 209 206 206 209 213 214 214 216 217 220 222 225 229 237 243 251 260 269 277 283 293 304 313 324 331 345 356 366 378 391 400 408 419 425 431 442 457 469 479 489 497 507 517 527 536 547 559 569 575 578 584 597 603 606 616 632 643 650 657 666 679 692 697 705 714 722 731 737 741 747 758 765 776 791 812 821 833 843 848 852 854 854 853 851 847 842 836 830 821 806 791 780 778 773 767 760 756 754 752 750 746 740 732 723 721 720 713 705 692 682 675 672 672 676 683 694 704 715 726 735 744 752 765 770 773 780 786 791 795 800 804 808 811 814 816 818 817 814 815 818 818 825 838 852 856 865 873 881 885 883 880 880 877 881 889 894 904 907 915 925 931 932 941 949 951 955 960
920 923 928 933 934 936 940 945 951 963 975 984 989 991 997 1009 1030 1056 1071 1095 1115 1138 1159 1174 1195 1214 1231 1244 1249 1270 1289 1303 1318 1329 1343 1358 1373 1385 1396 1405 1408 1408 1412 1424 1431 1436 1442 1447 1457 1469 1474 1478 1482 1484 1486 1487 1491 1491 1487 1480 1472 1466 1458 1453 1450 1448 1448 1446 1436 1426 1412 1395 1373 1357 1345 1325 1295 1271 1241 1198 1169 1154 1127 1106 1096 1071 1063 1053 1042 1039 1034 1025 1017 1004 989 984 973 971 966 957 957 958 953 955 949 945 942 943 942 943 946 949 950 948 946 945 942 940 934 931 926 912 908 901 902 901 899 899 898 899 901 899 895 887 883 879 877 874 872 870 872 876 882 887 889 887 884 872 849 837 826 820 793 769 743 725 711 695 680 666 650 632 607 588 580 540 469 427 359 326 293 263 246 234 226 219 218 215 213 215 213 211 210 212 214 215 213 215 210 213 211 209 206 204 207 204 204 204 204 206 208 209 211 207 208 207 208 208 206 205 205 206 208 209 205 203 200 198 197 196 194 195 195 199 205 205 206 205 206 204 204 204 202 201 199 197 197 198 199 198 198 200 206 206 206 204 208 209 205 208 216 213 207 204 206 206 202 203 205 208 217 210 208 206 200 199 197 197 199 201 204 207 206 204 203 207 204 199 199 200 201 200 209 215 211 211 210 208 206 203 203 205 209 210 212 208 209 208 213 211 213 213 210 212 214 209 208 207 207 208 207 209 212 214 210 209 213 215 223 230 233 240 246 253 261 279 287 294 302 312 322 330 341 355 366 377 392 405 412 418 425 431 440 451 460 468 479 490 500 507 518 527 537 549 560 573 580 587 592 599 606 612 620 634 650 658 668 672 684 699 705 714 723 729 736 745 752 759 765 773 785 800 816 829 837 845 854 855 856 857 858 857 856 851 846 840 829 816 804 791 782 777 772 767 764 763 765 765 763 760 749 739 732 729 719 713 704 696 687 679 678 679 686 695 703 711 721 731 746 760 772 774 780 787 792 796 800 806 813 817 819 822 823 824 824 815 811 810 810 814 827 842 858 866 870 878 882 881 880 878 877 879 881 883 891 904 910 919 928 928 931 940 942 942 952
921 924 930 936 939 942 948 951 955 963 971 977 983 989 995 1007 1025 1051 1063 1085 1108 1133 1149 1158 1187 1206 1224 1241 1252 1275 1288 1300 1308 1328 1346 1361 1374 1383 1395 1404 1406 1406 1413 1420 1426 1428 1433 1438 1445 1458 1465 1473 1474 1476 1476 1479 1479 1478 1475 1469 1464 1460 1452 1444 1439 1434 1428 1424 1420 1416 1407 1390 1362 1351 1340 1321 1287 1255 1226 1197 1162 1140 1131 1109 1082 1063 1053 1044 1036 1026 1014 1006 995 989 981 976 969 965 958 951 948 948 951 948 945 943 943 943 942 943 944 945 946 942 940 939 938 937 933 928 920 912 904 900 902 902 900 899 898 899 899 896 890 883 880 877 875 873 874 874 877 882 887 891 894 892 889 873 854 841 828 816 789 760 736 711 695 683 674 657 641 625 603 583 564 520 476 438 380 333 286 262 256 240 221 217 215 212 217 217 213 210 208 208 209 206 205 208 207 212 208 206 205 205 211 205 206 204 203 206 208 210 208 206 205 205 206 207 206 205 205 204 207 206 205 205 202 199 200 199 197 196 196 197 200 202 203 203 204 207 204 203 203 202 199 197 197 196 196 198 196 202 203 207 209 210 211 210 208 208 213 209 204 205 206 206 204 205 203 204 211 211 207 200 201 198 197 196 199 197 199 201 201 201 206 205 201 198 197 199 200 204 213 207 205 206 204 204 203 201 200 202 202 205 207 208 205 204 208 211 209 208 208 208 212 211 212 211 210 208 205 207 208 211 213 215 218 220 225 233 240 247 252 257 268 278 297 301 312 323 330 339 349 361 373 384 396 408 417 425 426 433 440 452 464 477 483 492 500 511 521 529 538 547 559 570 584 595 604 610 614 620 630 644 657 669 679 686 694 703 709 718 724 735 741 749 762 770 777 786 800 811 823 832 845 851 860 863 865 866 867 871 870 864 857 849 838 825 816 806 798 791 783 775 771 770 771 771 768 763 757 750 744 738 730 724 717 710 701 692 686 685 689 695 701 708 719 731 743 758 773 779 785 792 798 803 806 812 817 823 824 828 832 830 825 813 804 811 811 820 821 835 846 856 861 869 877 879 882 878 877 877 875 878 885 892 898 898 912 920 930 934 938 942 941
922 925 931 937 942 945 951 955 959 963 969 974 978 986 997 1011 1025 1041 1063 1076 1090 1122 1144 1161 1186 1202 1219 1240 1262 1279 1292 1297 1305 1324 1345 1358 1372 1388 1391 1397 1407 1411 1409 1411 1415 1421 1426 1432 1437 1447 1453 1461 1464 1465 1467 1468 1469 1468 1467 1461 1455 1445 1436 1428 1423 1419 1414 1410 1405 1400 1393 1378 1357 1345 1333 1296 1279 1246 1222 1192 1160 1145 1111 1078 1066 1053 1045 1033 1025 1013 1005 992 984 979 974 970 968 964 958 953 950 949 949 948 946 945 946 945 944 943 943 942 942 943 940 937 934 932 929 922 915 911 906 905 905 906 904 902 901 901 899 894 887 883 880 879 879 879 883 882 884 888 892 896 895 893 890 881 865 840 827 812 790 754 729 704 685 673 664 650 632 618 598 587 564 527 498 442 381 334 284 259 249 237 221 217 213 215 215 216 212 207 204 204 206 204 205 203 208 207 206 207 207 206 205 204 204 204 206 207 207 203 202 204 205 206 205 208 206 206 205 204 203 201 200 200 199 200 201 200 197 194 194 195 199 200 201 202 202 203 203 205 204 203 200 200 199 197 196 195 202 206 207 210 207 210 209 209 211 210 210 212 211 208 211 213 212 207 212 212 208 209 206 203 201 200 199 198 197 196 197 199 199 200 199 198 198 199 198 199 201 206 207 205 205 203 199 204 202 200 198 199 202 205 205 210 211 209 206 210 209 211 211 208 210 210 212 213 210 208 207 205 205 205 207 211 219 224 232 235 242 249 261 266 275 286 301 313 319 328 338 347 355 362 373 385 395 406 418 425 433 439 451 461 474 483 488 494 505 520 532 539 543 547 555 564 579 596 610 617 625 631 639 652 668 680 684 696 704 707 715 719 726 735 747 758 766 774 782 793 805 817 830 838 850 859 866 871 874 877 880 881 878 870 861 853 844 833 822 815 808 803 796 788 780 778 778 777 775 773 766 760 755 749 745 739 734 724 716 707 699 694 692 693 697 706 719 732 744 754 767 781 791 799 804 809 814 819 826 830 833 836 840 840 835 822 810 805 805 813 816 830 844 855 860 866 871 877 877 874 874 876 875 876 882 884 885 893 900 908 917 924 928 931 935
928 929 933 941 948 951 954 956 958 958 959 964 972 982 996 1010 1025 1038 1053 1072 1086 1111 1142 1160 1185 1204 1220 1239 1258 1279 1292 1302 1305 1320 1337 1352 1356 1376 1383 1390 1395 1403 1407 1408 1410 1413 1417 1424 1429 1437 1445 1451 1453 1455 1457 1460 1461 1459 1455 1447 1438 1431 1426 1420 1412 1404 1400 1396 1391 1384 1372 1359 1341 1329 1302 1276 1250 1223 1195 1173 1138 1110 1092 1073 1057 1044 1033 1022 1013 1003 994 982 976 971 969 967 965 963 959 955 952 950 949 950 948 947 946 943 942 941 940 938 937 936 936 935 931 928 924 919 915 909 908 910 911 911 909 907 906 903 898 894 891 887 888 885 884 885 886 888 890 892 895 896 896 892 885 875 867 845 832 816 779 760 729 700 684 672 664 652 634 621 602 582 565 543 503 460 402 338 291 271 246 233 224 217 215 217 217 213 211 208 205 203 204 208 208 208 207 208 208 208 206 206 204 201 200 200 206 207 208 204 203 205 208 207 206 205 206 201 200 201 202 201 199 198 197 197 194 196 198 196 196 198 198 198 198 199 201 201 204 204 205 207 204 203 202 200 198 202 201 200 201 204 204 201 204 207 213 212 212 215 213 212 220 226 219 214 212 212 210 210 208 205 199 198 196 196 196 196 199 199 199 198 198 197 200 203 201 202 204 209 208 207 203 199 198 201 198 196 196 199 199 204 207 213 215 208 205 204 201 203 204 202 203 207 209 211 212 212 211 209 210 210 212 218 225 230 235 246 253 261 271 284 293 304 313 323 332 335 343 352 359 367 376 388 399 410 421 428 436 447 462 473 481 487 492 501 514 527 536 545 553 558 560 566 576 588 601 613 623 634 645 653 666 681 690 700 708 713 718 723 729 736 753 763 770 779 787 797 811 823 838 846 855 861 867 871 876 880 885 887 884 878 870 862 855 845 836 827 818 813 808 804 794 789 785 783 782 781 778 774 766 761 754 750 745 737 725 718 712 706 700 695 702 705 717 732 746 760 771 779 791 797 804 811 818 824 830 833 835 843 846 847 840 833 818 809 809 810 817 827 838 849 854 859 862 860 862 867 864 866 866 870 873 877 880 885 891 901 908 914 920 925 931
937 932 932 936 943 944 946 946 947 947 949 958 965 977 989 1004 1016 1034 1054 1067 1088 1110 1132 1156 1159 1184 1214 1240 1254 1274 1291 1299 1301 1312 1330 1344 1352 1360 1369 1379 1384 1389 1397 1398 1399 1402 1406 1411 1420 1428 1435 1443 1447 1447 1448 1449 1449 1447 1442 1435 1427 1423 1418 1410 1399 1388 1377 1367 1359 1353 1343 1330 1309 1285 1258 1235 1207 1181 1170 1146 1108 1098 1073 1061 1050 1041 1023 1010 1000 993 985 976 968 963 961 959 958 963 959 954 949 948 948 950 951 951 951 947 945 942 941 940 939 938 937 935 932 927 920 917 915 914 914 916 915 913 911 909 904 901 895 896 895 890 896 894 893 893 894 896 895 895 896 895 895 890 879 870 854 844 828 805 778 756 732 700 688 673 662 656 641 628 605 582 571 544 487 457 405 358 312 271 250 235 226 221 220 218 216 210 208 206 205 206 206 210 209 211 213 216 215 213 205 204 202 202 201 200 203 208 207 208 209 211 212 211 209 204 201 199 198 197 198 200 200 199 198 197 196 193 198 200 198 199 200 201 201 200 200 201 207 207 205 207 205 204 202 201 200 201 203 202 204 206 205 200 202 205 211 213 217 219 215 216 219 220 220 217 220 218 212 211 210 206 199 196 195 195 195 196 199 200 199 198 200 199 202 203 205 207 206 211 209 207 205 200 199 199 197 195 194 195 195 199 202 211 215 208 204 203 201 202 203 201 202 204 209 213 215 215 215 215 216 218 222 227 232 233 240 254 266 280 289 299 309 324 332 339 343 344 350 357 367 378 387 394 403 418 426 433 442 455 475 486 492 496 500 509 523 535 544 552 559 564 568 575 581 588 598 608 619 634 648 658 665 678 686 697 712 721 726 731 738 745 757 769 777 786 796 805 816 828 840 851 859 866 874 878 882 884 887 891 893 891 883 874 865 860 852 839 830 823 817 815 812 806 803 799 795 791 788 786 780 777 772 764 756 746 734 725 718 713 708 705 705 718 726 735 745 759 770 779 790 797 803 811 819 826 832 837 841 845 848 851 846 836 822 815 815 810 812 819 827 839 847 852 854 850 852 851 856 861 862 864 867 868 872 877 883 889 896 903 913 919 925
944 944 944 943 939 939 936 932 930 930 939 948 963 970 983 999 1018 1037 1045 1065 1094 1112 1128 1139 1151 1162 1209 1244 1260 1273 1285 1293 1302 1307 1324 1329 1342 1352 1358 1368 1372 1380 1383 1388 1392 1394 1397 1403 1413 1422 1433 1440 1440 1442 1441 1439 1438 1435 1432 1426 1419 1412 1406 1395 1381 1365 1353 1344 1339 1331 1319 1297 1266 1245 1226 1205 1181 1162 1139 1117 1105 1087 1062 1053 1047 1034 1011 998 992 986 978 969 962 955 955 955 956 959 959 956 952 952 951 951 950 953 953 949 946 944 944 943 942 939 936 933 929 926 923 916 916 919 919 919 917 915 911 904 903 899 893 891 891 893 897 895 896 897 900 905 904 902 900 898 894 885 873 858 849 837 827 806 780 753 734 711 700 686 673 660 647 634 608 573 544 504 476 456 398 356 319 278 254 237 227 217 216 208 204 200 199 203 203 205 208 213 215 213 214 214 211 209 209 207 209 203 201 201 204 207 211 213 213 212 212 209 206 202 198 196 197 198 199 201 202 201 201 200 198 198 195 198 197 199 201 201 202 203 205 206 203 210 208 205 202 199 199 201 202 202 204 206 208 207 206 202 203 208 214 215 219 207 209 211 211 220 217 217 220 213 211 210 208 206 201 198 199 199 198 196 198 199 198 198 199 199 200 202 204 209 208 213 202 203 204 203 201 197 197 196 195 197 197 197 200 206 211 210 208 206 206 202 204 203 203 206 210 213 214 216 219 222 225 230 236 245 250 257 263 270 280 288 302 316 329 342 349 354 357 359 363 370 377 386 393 399 407 417 432 447 454 480 490 496 505 513 520 527 538 548 560 563 567 572 574 579 583 591 599 609 619 631 647 658 669 676 687 701 714 725 734 740 750 755 765 773 783 790 802 811 823 834 842 855 861 868 875 880 884 888 893 899 903 904 899 891 882 873 864 853 840 835 830 827 823 820 819 819 811 805 796 792 790 786 782 775 767 755 743 733 727 723 720 720 723 727 734 741 751 756 767 775 786 795 805 815 824 830 834 838 844 846 849 852 845 831 816 812 812 804 808 811 824 835 837 841 846 849 849 848 854 859 862 862 863 861 864 869 874 880 886 890 903 913 920
951 950 947 945 943 938 934 931 928 924 927 941 951 965 981 998 1021 1039 1051 1073 1097 1116 1129 1136 1153 1163 1207 1249 1263 1274 1280 1287 1295 1301 1314 1326 1332 1348 1355 1357 1365 1372 1378 1380 1382 1385 1392 1396 1407 1418 1431 1437 1438 1436 1437 1434 1431 1427 1424 1418 1406 1398 1389 1376 1362 1347 1338 1334 1326 1313 1300 1258 1239 1222 1205 1189 1166 1141 1119 1109 1098 1083 1068 1057 1042 1029 1001 989 986 981 970 959 952 950 951 953 957 958 958 955 953 951 950 951 950 948 948 947 946 946 945 944 940 938 936 934 929 926 920 917 918 917 919 918 915 912 909 902 899 893 887 884 886 889 891 897 901 904 906 906 907 906 903 900 894 884 871 860 853 843 836 819 792 768 745 727 715 713 695 681 666 630 589 539 516 471 469 403 399 326 299 271 245 232 222 218 214 201 197 194 195 203 208 208 209 212 210 210 209 209 209 206 209 213 212 214 210 210 211 216 213 213 212 212 211 208 202 198 196 196 197 200 201 201 203 205 203 201 201 200 200 200 195 196 198 199 200 202 208 204 205 205 207 204 202 200 203 204 204 205 206 206 206 204 201 198 205 216 216 220 210 208 213 208 207 214 215 213 215 211 211 209 208 208 204 201 201 199 202 199 195 194 191 197 197 197 199 201 206 207 214 215 203 202 211 207 196 199 199 201 199 199 198 198 202 205 206 208 209 208 208 207 207 207 209 212 215 218 219 220 222 227 235 243 250 256 264 275 284 287 296 303 313 329 343 356 364 374 377 376 376 378 382 387 394 398 409 421 440 456 472 487 492 501 516 524 529 539 544 553 560 571 573 574 577 581 589 595 605 615 624 633 641 653 664 673 683 700 714 725 734 742 747 755 763 774 783 797 810 826 834 842 847 856 865 875 882 887 890 892 897 903 907 910 908 907 900 889 879 866 854 843 840 838 837 836 834 831 824 816 809 805 799 792 786 782 773 767 756 747 741 735 734 734 735 739 745 750 756 762 769 777 788 798 809 820 828 835 840 843 846 847 849 846 842 836 823 806 806 798 801 810 816 827 834 838 840 845 848 852 857 858 862 864 864 861 861 866 872 878 884 889 897 907 916
961 958 954 949 944 941 939 938 933 928 929 936 949 966 981 1002 1023 1048 1059 1078 1092 1111 1124 1134 1150 1165 1198 1233 1253 1267 1278 1286 1292 1299 1309 1319 1329 1339 1353 1360 1360 1365 1372 1378 1378 1379 1384 1385 1393 1408 1424 1432 1430 1430 1428 1427 1427 1424 1419 1406 1392 1382 1373 1360 1349 1341 1333 1323 1309 1294 1264 1238 1221 1203 1193 1174 1157 1126 1104 1095 1085 1077 1068 1053 1040 1024 1002 989 980 970 962 953 949 950 953 956 957 957 955 953 951 948 948 950 947 944 943 943 944 946 945 943 940 937 936 934 931 927 921 919 916 914 914 912 909 905 900 896 891 884 883 882 883 884 888 895 900 904 906 907 906 905 902 898 894 886 878 871 860 845 835 822 805 783 760 747 740 729 713 695 688 623 582 544 493 477 433 401 339 307 277 250 233 224 218 214 205 196 193 192 196 202 210 212 210 209 208 206 204 206 207 205 205 207 211 212 216 217 218 219 215 213 210 209 206 203 199 199 198 197 196 196 200 202 204 205 203 201 202 201 199 197 193 193 195 197 197 200 202 206 204 204 204 205 206 205 205 204 204 205 205 207 207 205 202 204 210 221 221 211 212 210 209 209 210 211 211 210 202 206 205 206 207 202 204 205 205 203 204 201 197 194 194 195 197 199 200 203 210 213 210 207 205 210 209 209 205 203 200 203 204 202 198 202 204 204 204 205 206 207 207 206 207 209 213 217 221 223 224 225 228 233 244 257 267 274 280 287 295 304 318 329 334 344 356 369 379 390 390 388 385 384 385 388 393 399 408 419 437 454 470 477 489 497 516 531 532 541 547 555 562 567 572 574 578 586 598 606 613 621 631 637 643 651 660 669 682 695 715 724 734 739 747 753 760 773 784 800 816 828 840 847 854 862 871 880 888 893 896 899 903 910 915 918 920 918 914 907 898 885 868 855 852 848 846 846 845 843 838 831 823 815 806 798 790 784 780 775 769 760 753 746 744 744 746 746 749 753 759 766 774 785 792 802 810 819 829 838 842 845 848 847 850 849 845 838 827 807 807 798 791 798 808 821 828 831 836 841 845 848 849 853 859 861 865 862 860 863 866 875 882 889 896 902 907
966 961 955 950 946 943 942 941 940 936 936 942 957 975 987 1005 1030 1054 1066 1085 1099 1103 1117 1132 1149 1167 1189 1211 1238 1263 1269 1279 1286 1292 1301 1312 1325 1337 1352 1359 1364 1366 1371 1375 1379 1383 1385 1388 1393 1403 1414 1421 1427 1427 1425 1422 1421 1419 1412 1396 1383 1372 1361 1352 1347 1338 1326 1307 1295 1274 1255 1225 1206 1188 1179 1162 1136 1107 1097 1086 1076 1064 1053 1040 1027 1009 998 989 976 964 959 951 947 947 951 953 955 955 955 954 953 952 950 948 947 945 945 945 945 946 946 945 941 938 933 932 932 930 928 925 919 915 911 907 902 900 892 887 886 885 885 883 884 888 893 900 905 907 908 910 909 908 905 902 900 896 889 878 870 853 840 830 809 794 782 766 761 743 728 692 688 623 587 525 489 430 398 343 317 285 243 239 230 225 218 213 201 195 193 196 197 201 207 208 211 209 209 210 207 205 203 205 207 208 211 214 214 215 214 215 211 209 206 205 201 200 202 201 201 200 199 201 201 200 202 202 202 201 202 200 198 196 198 195 195 195 197 197 196 199 204 206 203 204 204 204 203 201 202 205 208 210 211 208 209 207 212 215 216 216 210 215 213 213 212 210 211 199 202 204 202 204 204 204 206 208 210 212 206 199 200 196 197 197 197 197 200 202 210 211 211 204 214 210 211 216 217 215 207 205 204 205 203 202 203 202 204 207 208 207 205 205 208 213 217 221 224 226 229 232 236 245 255 264 274 280 287 297 307 322 335 342 351 360 370 383 394 401 402 399 395 392 392 394 397 402 414 429 442 454 462 467 475 481 496 510 532 534 542 551 562 567 571 576 588 598 607 614 617 622 630 639 646 652 658 667 679 688 702 722 730 739 745 751 759 777 790 802 816 828 839 846 860 867 874 882 890 897 903 908 912 920 924 927 928 927 922 916 907 896 884 875 865 864 861 860 859 856 848 840 832 824 811 801 792 785 782 779 771 767 762 758 757 757 754 756 759 762 765 768 773 778 789 799 809 815 824 839 844 846 848 849 848 844 839 832 826 812 812 799 794 797 808 817 821 824 824 828 834 837 842 850 849 852 854 851 854 849 854 860 873 885 893 896 899
971 965 958 953 949 947 945 945 945 941 940 945 963 978 988 1000 1016 1042 1063 1078 1088 1098 1106 1123 1147 1169 1182 1199 1217 1247 1264 1274 1281 1288 1296 1310 1326 1338 1347 1353 1363 1368 1371 1377 1382 1386 1391 1394 1397 1399 1404 1412 1419 1423 1424 1424 1421 1418 1412 1396 1381 1365 1356 1347 1339 1327 1310 1292 1277 1262 1245 1212 1197 1177 1159 1129 1118 1109 1098 1081 1066 1041 1028 1017 1013 1003 997 987 967 962 956 948 947 947 951 953 955 957 958 958 956 953 949 947 946 944 943 943 945 947 946 946 941 937 935 932 930 927 925 921 917 914 909 904 896 889 886 885 888 889 893 896 895 898 902 907 910 912 913 913 910 908 905 906 910 910 901 896 882 869 859 848 835 812 791 780 773 764 739 690 644 618 564 528 462 424 360 320 280 240 231 230 224 225 217 214 204 198 198 192 196 200 205 207 211 214 210 210 209 206 206 207 208 212 213 216 216 214 210 212 209 208 207 204 202 202 202 202 202 200 197 199 196 199 199 200 201 201 202 202 202 201 200 197 197 196 198 195 193 193 193 195 195 195 194 196 205 202 202 203 206 209 213 211 211 214 210 211 215 215 216 213 214 219 214 209 201 192 198 199 201 201 203 204 206 210 212 216 216 214 206 202 202 201 199 201 205 206 214 214 213 214 208 207 209 215 215 220 208 207 205 207 205 206 207 208 207 209 210 211 210 209 210 215 221 227 230 233 237 241 246 254 261 268 278 281 289 300 311 323 335 348 362 372 383 394 405 411 411 409 407 407 408 409 410 418 426 435 443 449 455 460 466 471 481 491 510 523 532 539 554 561 568 577 589 601 611 617 618 622 630 640 647 651 656 664 677 685 694 705 719 733 746 757 772 783 795 808 817 832 844 853 863 870 878 885 892 900 908 915 921 929 935 935 936 933 928 921 913 904 894 887 884 883 876 876 876 870 860 849 840 830 819 810 801 796 793 790 786 780 773 767 765 764 764 766 767 769 771 777 780 784 792 802 803 818 828 839 844 847 848 849 848 843 839 832 824 811 811 802 801 804 809 812 813 814 818 824 824 829 833 836 840 842 841 845 845 847 851 852 859 869 881 888 891
979 974 967 962 958 954 953 951 948 946 945 945 955 971 983 994 1008 1030 1047 1064 1076 1093 1110 1127 1146 1168 1184 1197 1211 1228 1248 1262 1272 1282 1295 1312 1328 1340 1346 1351 1354 1366 1373 1381 1387 1390 1390 1394 1396 1395 1395 1398 1407 1417 1422 1422 1418 1414 1407 1392 1376 1361 1348 1338 1324 1310 1295 1277 1254 1244 1223 1206 1191 1162 1135 1121 1117 1110 1093 1065 1047 1033 1024 1017 1010 1002 994 980 964 960 953 949 950 953 958 962 964 964 963 961 958 953 949 947 947 946 946 946 946 947 947 946 941 934 930 927 924 922 920 918 915 915 904 896 890 888 890 891 893 898 902 904 900 907 911 914 916 918 919 916 915 913 913 913 915 912 908 894 883 877 864 855 843 819 801 789 775 766 737 673 629 607 528 492 447 368 344 299 240 230 223 221 217 219 217 217 210 200 191 197 197 200 207 210 213 213 209 207 206 206 206 207 208 211 210 212 209 209 207 207 208 207 208 206 204 201 201 200 199 198 197 197 196 195 197 197 198 200 203 206 207 206 206 203 202 203 200 196 195 193 191 187 188 191 195 197 199 203 203 202 203 208 212 207 212 219 212 211 211 217 220 223 224 215 212 205 195 195 197 198 200 200 202 204 207 210 214 214 212 212 210 211 209 207 207 206 210 207 213 213 218 218 213 201 202 207 212 214 211 210 207 206 207 210 211 212 212 212 211 211 211 212 213 216 225 231 235 240 247 254 260 265 267 273 281 287 293 300 309 322 338 351 369 385 396 405 409 413 416 417 419 422 424 426 427 430 434 438 443 446 452 458 464 477 483 486 509 511 520 535 537 552 561 570 582 597 607 615 619 624 631 639 646 656 662 669 676 685 690 703 716 737 754 762 781 794 801 813 828 839 847 858 864 873 881 889 897 907 916 925 933 939 944 941 940 934 929 924 921 919 909 903 898 896 895 894 884 877 866 855 847 839 830 820 814 809 805 802 799 794 789 783 780 778 780 778 778 778 778 781 787 794 800 806 808 820 832 843 845 844 847 849 847 843 837 831 824 816 816 802 802 803 806 808 810 812 817 820 822 825 825 829 826 824 824 828 831 837 841 845 846 855 865 877 882
994 987 978 970 965 961 956 951 946 945 944 945 947 957 972 986 1003 1018 1033 1053 1070 1086 1110 1131 1150 1165 1178 1191 1208 1225 1241 1252 1264 1276 1288 1305 1323 1335 1343 1351 1359 1368 1373 1380 1387 1391 1395 1396 1395 1395 1393 1391 1395 1407 1420 1421 1419 1415 1406 1388 1366 1353 1337 1321 1308 1288 1281 1260 1228 1212 1207 1191 1172 1147 1127 1113 1114 1099 1077 1056 1042 1033 1022 1013 1007 996 986 972 966 958 957 955 956 960 967 970 971 966 963 961 956 954 951 949 948 948 950 948 949 949 948 944 940 935 931 927 924 922 921 918 912 904 897 889 885 885 888 892 895 900 902 909 910 914 916 917 917 918 917 914 914 917 913 913 918 905 895 883 878 873 867 844 837 813 796 783 768 731 674 644 611 554 521 459 391 337 312 259 237 222 216 217 217 217 215 210 203 196 195 192 196 203 206 209 210 210 208 206 206 205 205 203 203 204 204 204 204 203 207 206 210 211 210 209 205 202 203 202 199 195 194 194 195 194 196 199 198 199 200 204 207 209 208 211 206 204 201 198 196 194 193 189 190 191 194 202 202 207 204 203 201 202 208 211 211 213 215 214 214 215 226 222 221 214 205 201 197 196 195 198 199 199 201 206 208 212 218 213 211 208 211 210 214 209 209 210 206 201 205 215 212 210 201 197 195 197 199 201 201 202 202 203 204 206 212 214 216 217 216 213 212 214 216 221 229 238 247 251 256 262 265 270 274 281 287 294 300 307 315 328 343 361 381 395 408 416 417 418 417 417 421 426 430 433 437 438 441 444 449 456 463 470 480 487 492 505 511 514 518 532 535 543 548 564 575 587 600 613 621 628 632 638 644 654 661 668 676 684 689 697 713 733 747 765 778 796 805 818 836 846 852 861 867 878 888 898 906 917 931 936 939 947 947 946 947 941 934 932 930 923 919 917 913 910 908 905 894 879 867 859 854 847 838 829 824 821 816 813 811 810 805 799 794 791 789 787 788 791 792 796 801 808 811 815 814 825 840 846 849 848 847 846 844 839 834 829 818 812 812 805 799 800 801 801 808 811 813 817 819 821 821 822 815 808 813 820 825 826 832 837 843 849 857 866 873
1004 994 984 974 970 964 957 949 944 943 942 942 944 948 969 984 999 1010 1031 1052 1068 1087 1105 1133 1154 1165 1174 1187 1202 1216 1229 1252 1265 1276 1285 1300 1317 1334 1344 1352 1361 1368 1375 1382 1387 1390 1393 1394 1393 1393 1392 1395 1400 1407 1418 1421 1418 1409 1396 1377 1359 1341 1326 1308 1298 1286 1246 1228 1209 1199 1186 1170 1158 1139 1121 1111 1099 1086 1073 1059 1037 1028 1019 1010 1000 985 971 966 963 962 960 959 960 964 967 970 970 968 963 958 953 951 949 948 949 951 950 947 945 945 944 942 936 931 928 927 926 928 924 917 908 900 893 884 883 885 889 893 901 908 910 913 916 918 917 916 915 914 913 912 912 910 911 911 909 900 879 876 866 864 848 833 806 793 779 756 721 704 680 619 588 540 485 397 364 313 263 243 226 220 214 215 213 214 213 209 203 198 196 199 201 203 206 208 209 208 207 207 206 203 200 201 199 201 201 201 201 201 203 205 209 212 213 209 207 206 204 201 199 197 196 197 197 196 196 197 198 200 200 202 204 206 209 211 206 203 199 195 193 192 192 192 188 189 197 199 203 209 209 206 210 206 209 214 212 215 221 215 217 218 218 223 219 211 204 204 198 198 197 198 200 201 203 208 210 213 217 212 209 208 208 209 207 208 204 203 205 206 209 209 203 200 197 199 197 197 200 202 202 203 203 203 203 205 208 210 213 216 217 216 215 217 220 230 239 246 253 260 264 268 272 280 288 292 298 301 305 311 321 330 346 364 384 404 414 418 419 418 418 420 423 429 433 439 443 445 447 450 456 464 475 487 498 507 515 518 521 525 526 528 541 547 554 560 569 582 591 605 615 624 633 638 642 648 656 664 671 679 686 695 709 732 753 764 778 797 812 828 833 854 861 869 879 890 899 908 916 924 932 940 944 949 954 948 949 945 939 934 930 927 923 923 920 917 917 912 903 890 876 869 865 860 854 846 840 834 829 824 821 819 817 814 810 804 801 800 799 803 803 810 811 812 809 810 816 828 841 847 849 851 852 846 839 835 833 827 816 810 810 803 800 794 796 797 797 798 803 807 811 815 816 816 804 804 802 809 814 818 826 833 839 845 851 856 866
1012 1004 989 977 973 964 956 950 945 942 942 942 944 953 967 984 1002 1014 1026 1045 1063 1086 1121 1147 1155 1166 1174 1184 1198 1216 1233 1247 1264 1277 1286 1299 1311 1326 1339 1347 1354 1361 1366 1373 1379 1384 1385 1387 1388 1389 1389 1391 1396 1405 1410 1411 1406 1397 1383 1366 1347 1333 1320 1301 1285 1241 1221 1202 1185 1179 1166 1155 1145 1126 1117 1099 1083 1072 1058 1034 1028 1021 1015 1006 994 981 970 963 964 964 962 964 964 965 967 967 966 965 960 955 951 947 947 947 948 951 952 950 947 943 940 936 929 925 926 926 926 926 922 913 902 895 888 884 884 889 890 897 905 910 916 921 920 920 918 917 915 914 910 905 895 880 877 884 876 869 870 862 817 799 801 798 787 776 763 728 707 683 639 596 538 512 425 374 340 300 252 235 225 220 218 219 214 213 214 215 208 202 199 203 204 202 203 203 204 205 206 206 205 199 197 198 200 199 198 198 200 201 202 202 204 206 209 207 209 208 207 208 206 203 201 200 199 199 197 196 197 200 202 203 203 204 205 205 206 203 199 194 188 190 194 194 193 191 193 199 203 207 210 215 219 220 214 222 223 224 223 222 219 215 221 221 214 205 198 201 200 202 198 197 200 203 207 209 211 212 209 209 204 204 206 207 210 204 206 209 210 207 208 201 198 197 200 200 199 202 204 204 204 206 207 208 210 211 211 209 214 215 219 221 220 221 229 239 250 256 264 271 276 284 289 295 303 308 310 314 313 318 322 330 349 367 385 401 408 415 417 418 420 422 423 433 441 448 452 456 458 461 467 477 490 503 513 521 528 535 538 542 544 546 551 555 560 564 573 581 589 596 604 614 623 631 639 645 652 660 667 677 685 695 710 730 754 766 779 792 818 830 847 861 869 884 892 899 906 917 925 930 936 942 946 947 947 945 948 947 943 935 934 931 927 926 924 923 923 919 911 899 888 879 874 872 867 859 851 845 842 839 834 831 828 826 821 817 814 810 807 809 810 813 813 808 814 815 822 829 838 843 843 853 852 843 838 835 831 820 812 806 806 803 797 788 784 782 783 786 789 793 797 801 802 803 796 796 796 798 800 809 818 826 834 842 851 856 860
1015 1009 998 986 976 967 956 948 942 940 940 942 946 955 965 981 997 1012 1025 1042 1061 1092 1119 1147 1160 1166 1172 1185 1201 1217 1233 1246 1260 1272 1284 1297 1308 1323 1337 1342 1350 1356 1361 1367 1373 1377 1379 1380 1381 1383 1386 1391 1394 1395 1395 1394 1391 1382 1368 1352 1338 1325 1316 1304 1278 1238 1212 1183 1174 1165 1152 1145 1134 1116 1100 1076 1067 1052 1037 1023 1017 1012 1004 996 988 977 969 966 965 967 968 967 967 966 965 963 961 960 958 952 947 945 944 944 945 948 949 947 942 938 934 930 927 926 923 925 926 924 919 911 901 889 886 883 882 887 897 906 914 917 920 921 920 920 918 919 918 915 909 894 876 868 845 847 840 821 804 782 774 767 767 769 765 756 735 726 705 680 629 577 509 450 409 376 328 280 249 232 227 228 223 223 218 218 217 217 214 208 204 202 202 201 202 202 202 202 202 201 200 199 198 200 202 201 200 201 203 200 199 197 198 201 204 208 207 206 206 207 208 205 202 201 202 203 200 197 198 198 203 199 198 198 198 202 201 200 198 193 193 190 192 197 195 197 198 202 203 211 216 218 214 221 222 221 222 228 228 227 223 222 222 220 211 201 197 199 197 199 197 197 201 205 208 210 211 210 204 201 199 198 200 202 206 213 214 219 213 212 204 200 200 201 201 202 204 207 210 212 213 214 214 216 216 216 218 213 216 217 220 222 225 228 237 250 261 267 273 281 291 297 302 307 316 321 327 330 331 330 329 335 350 365 381 390 403 411 418 422 426 425 431 446 451 456 458 457 459 464 473 489 505 519 528 540 546 552 557 560 558 560 564 569 573 577 581 585 591 596 602 609 616 624 633 641 649 656 666 676 687 697 710 729 748 763 783 799 821 829 844 870 874 888 897 904 912 920 927 934 940 943 944 946 946 948 953 950 947 945 942 939 937 934 933 931 928 922 917 906 898 889 881 876 873 869 863 860 858 855 853 851 845 840 831 826 823 819 817 814 819 821 820 817 821 821 826 831 837 840 839 848 845 843 836 832 822 809 802 799 799 792 784 775 770 768 768 773 777 780 784 787 789 792 788 788 791 795 798 804 811 822 831 837 846 851 855
1020 1014 1004 991 980 965 956 947 943 939 938 939 945 956 963 982 991 1003 1024 1036 1063 1083 1109 1127 1153 1167 1170 1183 1200 1219 1234 1248 1259 1269 1280 1291 1306 1318 1330 1338 1342 1352 1361 1368 1373 1373 1375 1377 1380 1385 1391 1389 1388 1384 1382 1378 1374 1367 1358 1346 1331 1312 1297 1279 1268 1226 1205 1181 1168 1159 1148 1134 1121 1107 1085 1071 1056 1039 1020 1010 1009 1001 993 984 982 975 971 968 967 968 967 967 967 966 963 960 958 957 955 951 947 943 942 942 944 948 948 946 942 936 932 928 927 926 927 929 931 929 926 916 901 888 879 881 880 887 898 910 916 920 918 919 919 920 924 923 920 915 909 885 863 852 842 829 814 792 781 767 761 753 746 745 743 738 731 710 700 682 654 561 477 418 397 379 325 285 252 238 235 234 226 222 219 218 218 219 214 209 206 204 204 205 202 201 198 198 196 199 198 198 200 201 202 201 203 206 209 205 202 199 198 199 202 207 210 205 206 205 203 201 201 201 203 205 204 201 198 198 195 198 196 197 198 198 196 196 198 199 199 196 194 197 198 197 198 199 202 211 214 219 219 220 222 222 221 224 227 226 227 227 220 209 199 198 203 201 199 194 195 197 199 203 205 207 208 205 200 199 198 196 197 196 203 208 212 216 215 207 204 203 204 205 209 213 217 218 219 221 221 221 220 220 223 225 225 224 221 226 227 230 230 234 245 264 273 284 293 304 309 314 318 324 329 333 338 342 342 337 337 344 351 360 373 386 398 408 416 420 425 433 440 449 457 460 459 460 462 468 480 494 508 529 540 552 554 562 566 569 574 579 579 583 584 586 590 595 597 601 608 615 622 628 635 643 651 659 669 675 688 701 716 729 746 750 784 806 822 843 851 864 881 888 898 908 913 920 927 932 937 944 947 949 951 951 952 949 947 949 946 945 943 942 942 941 936 926 915 907 901 894 887 881 879 876 872 871 872 871 867 861 854 846 838 832 830 827 825 824 821 822 824 826 826 829 834 840 844 847 850 845 839 838 833 828 818 805 796 791 791 780 772 767 754 752 751 753 757 764 773 780 781 779 777 780 785 790 796 803 811 821 829 837 843 849 855
1026 1021 1014 1001 987 970 960 951 946 944 942 942 947 957 964 980 991 998 1017 1039 1064 1077 1101 1110 1138 1156 1168 1179 1196 1211 1228 1241 1252 1263 1274 1287 1300 1310 1321 1330 1338 1347 1354 1363 1370 1374 1375 1378 1381 1384 1386 1385 1381 1379 1377 1373 1366 1358 1348 1337 1317 1296 1282 1269 1252 1227 1189 1173 1163 1157 1147 1128 1107 1083 1069 1055 1043 1027 1012 1006 1001 994 988 985 981 974 970 966 964 964 966 968 967 964 959 956 956 957 956 953 950 946 944 944 946 948 950 946 940 936 933 931 929 930 933 933 933 930 923 916 905 889 882 875 876 885 895 907 912 915 916 916 918 922 923 923 918 916 910 891 856 844 831 808 785 775 760 749 745 735 724 723 718 707 703 703 685 675 651 555 481 424 401 343 324 287 254 247 236 234 227 222 218 216 213 210 209 205 203 204 205 206 200 205 204 200 200 198 195 196 198 198 201 202 203 206 210 205 203 201 200 200 202 205 205 204 203 202 200 198 198 198 200 202 200 199 198 194 193 193 192 197 197 194 192 193 194 202 204 203 199 199 200 198 197 197 202 211 219 215 220 226 228 222 218 225 224 228 228 214 211 204 199 206 200 200 196 196 197 202 203 202 203 204 205 206 203 199 199 200 203 201 202 207 211 213 213 209 206 208 210 212 218 223 226 228 229 228 227 227 227 226 231 234 236 239 234 236 240 244 245 250 263 275 288 299 308 312 320 325 332 336 340 343 346 347 347 343 346 347 356 364 374 385 396 406 416 422 427 438 449 451 459 464 462 461 468 472 481 492 508 525 541 551 558 563 569 574 581 589 593 593 597 600 601 601 602 608 615 624 628 633 639 645 652 661 667 676 687 700 717 729 739 747 797 812 828 847 857 863 882 893 902 907 915 923 929 935 944 949 951 954 957 960 956 949 947 948 947 950 953 951 951 948 941 932 920 911 902 898 893 886 884 883 881 879 880 879 874 868 860 854 846 840 837 838 835 831 828 827 830 833 832 832 834 838 843 845 842 839 833 833 829 823 817 807 794 785 785 774 764 754 752 744 744 743 743 749 757 762 768 772 776 777 781 784 793 801 812 822 831 839 846 852 857
1029 1027 1019 1007 995 982 971 962 955 953 951 949 950 954 959 974 984 995 1010 1022 1034 1062 1091 1099 1111 1145 1162 1176 1190 1205 1215 1234 1246 1255 1269 1284 1294 1304 1315 1324 1334 1343 1351 1359 1365 1373 1379 1380 1380 1382 1383 1381 1377 1374 1371 1366 1357 1345 1333 1318 1305 1291 1276 1255 1230 1197 1170 1168 1159 1148 1139 1122 1084 1067 1060 1047 1035 1019 1009 1001 997 992 988 983 978 971 966 963 959 960 964 967 967 963 958 956 956 958 957 955 951 947 946 945 946 946 946 943 941 938 934 932 930 929 931 932 931 928 922 913 907 893 879 878 877 885 892 899 908 914 915 917 917 918 919 920 920 917 909 887 857 836 819 791 775 763 747 742 720 712 704 694 688 684 686 686 678 650 629 562 492 443 394 339 309 287 261 248 241 231 226 222 216 209 204 203 199 201 203 204 207 207 205 208 207 205 198 195 193 194 198 200 199 199 199 201 205 203 201 199 196 199 202 201 200 202 201 201 200 199 198 196 196 198 199 200 198 196 195 195 198 196 195 193 190 193 198 202 203 202 200 202 199 202 200 199 202 206 213 210 217 220 220 222 224 225 231 234 224 217 211 209 202 202 203 201 198 195 200 205 206 206 204 204 206 205 204 206 203 202 206 203 203 206 211 211 214 210 209 209 213 221 227 231 233 234 237 238 238 237 237 238 243 245 247 248 249 249 250 256 260 267 271 281 297 311 314 320 324 330 338 342 343 349 355 357 356 354 354 356 361 369 382 390 397 406 415 425 432 442 454 459 461 463 462 463 464 472 479 487 504 520 537 547 556 567 576 583 588 593 596 602 604 606 607 608 612 618 625 631 634 640 646 652 658 665 675 689 701 717 726 735 754 770 794 814 835 844 854 863 878 892 902 912 918 926 932 939 947 955 963 964 969 969 966 962 958 955 951 954 956 955 955 955 951 940 932 920 909 902 897 893 888 890 889 887 885 885 884 880 871 864 860 854 850 848 846 842 837 835 834 834 832 830 832 834 836 836 836 834 831 828 824 820 814 807 793 782 782 771 762 755 738 738 738 738 737 738 745 752 760 768 775 779 780 785 792 805 819 827 833 840 847 855 861
1031 1029 1025 1016 1005 995 986 976 966 960 959 958 958 959 959 969 981 988 1002 1015 1019 1048 1074 1096 1105 1129 1153 1174 1189 1200 1208 1226 1236 1246 1260 1275 1288 1297 1307 1317 1328 1340 1350 1359 1364 1370 1376 1376 1377 1376 1376 1373 1368 1362 1355 1349 1342 1329 1317 1307 1296 1285 1262 1231 1214 1167 1167 1141 1141 1134 1124 1102 1072 1061 1051 1040 1027 1019 1011 1002 994 989 985 980 976 970 964 959 957 960 963 966 966 963 960 960 961 960 958 956 954 950 947 945 944 942 941 939 938 937 935 932 929 930 929 933 932 930 926 916 913 899 882 883 885 887 897 903 910 914 914 917 917 917 916 915 913 910 894 870 845 825 807 784 764 754 743 726 709 703 686 671 660 657 655 652 649 626 618 568 518 459 400 364 325 291 278 266 240 233 224 221 215 208 203 200 197 198 200 206 209 209 210 212 210 201 199 196 193 195 201 202 201 200 199 195 194 194 196 192 192 197 197 196 194 195 198 200 202 202 202 202 202 204 208 204 202 196 193 196 198 196 193 194 196 199 201 202 199 197 197 201 198 202 203 205 205 206 209 210 208 217 220 220 225 226 233 226 217 215 212 213 211 210 205 201 196 194 204 206 210 206 211 216 213 210 212 214 211 208 208 207 206 207 207 213 214 212 218 215 222 227 234 237 239 243 240 242 242 244 243 245 249 249 250 250 253 256 261 262 265 275 284 293 310 317 323 332 333 337 345 348 350 358 366 368 367 363 360 361 365 376 391 402 410 418 425 432 438 442 449 453 455 457 462 466 467 471 480 492 508 521 535 547 557 568 578 588 595 598 601 605 610 615 618 620 623 627 632 633 641 649 657 665 670 676 686 702 716 724 733 754 760 783 811 823 836 846 856 864 876 894 906 917 922 930 936 943 950 958 965 969 971 970 970 968 966 959 957 957 958 956 958 959 957 948 939 924 918 912 902 898 895 895 895 893 891 890 888 883 880 872 867 862 859 854 849 845 840 836 833 829 827 824 824 824 822 820 820 820 818 819 817 815 808 804 789 781 781 769 762 752 743 737 736 734 732 732 734 739 748 758 769 779 783 792 796 812 828 835 842 845 850 855 863
1036 1035 1030 1022 1014 1007 998 984 976 968 963 959 961 963 964 969 979 984 993 999 1012 1036 1062 1080 1094 1108 1126 1150 1181 1196 1206 1217 1230 1241 1250 1265 1282 1297 1304 1314 1324 1337 1349 1358 1364 1371 1376 1378 1378 1377 1375 1367 1358 1348 1340 1334 1324 1316 1305 1292 1281 1267 1244 1222 1180 1161 1147 1140 1133 1122 1112 1085 1063 1049 1036 1026 1016 1010 1005 998 990 984 979 975 972 968 964 960 958 958 960 962 967 963 958 957 959 961 961 958 958 956 953 948 943 939 937 935 933 932 932 932 931 933 935 936 934 933 931 924 914 907 894 889 889 891 901 907 912 914 915 915 916 916 915 912 905 893 869 853 836 820 803 784 767 748 731 717 705 692 678 659 654 634 630 624 623 622 580 560 541 480 415 370 314 291 287 266 236 232 225 221 215 213 208 204 201 200 201 203 208 208 209 211 210 205 203 198 196 198 201 203 203 201 198 196 192 193 195 201 197 200 198 192 191 192 194 198 200 203 204 204 205 209 213 209 207 203 194 195 194 194 195 196 197 199 202 204 204 201 197 195 199 201 206 205 206 205 210 211 214 214 215 210 222 225 225 217 210 211 216 221 217 208 207 202 200 198 203 206 208 212 209 213 218 212 212 217 223 228 224 216 210 208 208 212 213 221 224 224 229 235 241 243 246 249 250 252 252 250 248 249 250 251 250 251 254 261 271 278 280 284 293 302 314 324 334 336 339 341 347 351 355 364 373 376 376 374 370 369 373 385 401 416 423 428 433 437 440 444 448 455 452 455 460 465 467 473 479 490 503 514 527 543 557 567 576 588 597 603 606 610 619 622 627 630 633 637 641 643 652 660 668 673 678 685 691 699 710 727 740 763 771 788 804 823 839 851 861 869 880 896 903 916 925 933 942 949 957 964 969 972 975 977 977 974 974 967 964 963 965 967 967 966 964 954 933 917 910 908 901 897 896 897 897 897 895 893 893 890 886 880 875 872 869 863 856 852 845 844 835 830 827 824 821 818 812 808 803 802 804 807 810 807 805 804 795 784 784 768 757 750 743 737 730 729 728 729 728 731 737 748 762 769 775 782 791 806 825 834 841 847 853 860 865
1045 1041 1037 1030 1023 1014 1006 995 982 975 973 973 973 972 973 975 978 984 991 998 999 1027 1054 1069 1083 1096 1115 1132 1155 1180 1199 1215 1229 1238 1243 1255 1272 1286 1298 1309 1321 1334 1343 1351 1359 1367 1374 1379 1381 1378 1370 1360 1350 1341 1329 1323 1313 1288 1276 1266 1258 1245 1218 1210 1182 1160 1149 1144 1128 1114 1085 1073 1051 1039 1026 1018 1013 1003 996 990 983 979 976 973 969 966 964 962 962 966 967 970 969 965 959 957 957 959 960 959 958 956 954 950 946 942 939 936 933 932 930 929 930 933 934 937 939 938 935 932 916 904 897 889 890 893 902 908 911 909 911 913 914 912 908 902 895 880 859 843 826 812 799 782 764 747 729 712 695 683 674 656 638 626 615 608 601 584 565 553 543 488 431 370 318 291 290 262 243 237 223 214 211 214 212 209 201 204 202 201 204 203 207 210 211 209 207 202 198 199 202 202 201 199 197 196 193 192 191 195 196 197 197 194 192 194 194 196 201 201 204 206 208 211 211 210 208 200 195 187 188 189 191 194 196 198 199 201 203 200 196 194 197 199 213 212 212 211 213 216 217 213 217 216 215 215 216 216 218 214 221 214 213 211 208 206 203 204 202 204 204 206 208 209 212 214 213 218 231 232 233 228 215 209 205 206 216 225 230 228 234 239 243 246 250 254 255 256 255 255 254 253 254 253 252 254 258 265 273 281 287 295 306 316 331 331 335 337 339 342 352 363 365 372 378 378 379 378 374 376 381 390 403 417 424 428 432 437 442 445 445 447 452 457 462 466 471 477 484 492 502 510 526 540 553 564 575 589 600 606 612 621 628 633 635 637 641 647 653 658 664 670 675 681 687 696 702 711 722 735 757 767 785 797 814 827 839 855 864 868 876 900 909 914 925 936 948 957 960 967 971 976 981 985 986 985 982 976 969 970 974 974 974 974 970 956 938 920 911 901 895 892 893 894 896 897 898 899 898 897 895 891 889 885 882 875 867 861 855 849 843 840 835 829 821 813 807 802 799 794 794 799 805 804 803 802 797 788 788 775 763 753 744 737 732 730 730 730 729 731 733 743 753 767 775 785 795 802 813 825 834 833 842 853 860
1048 1045 1040 1034 1026 1014 1006 998 991 986 981 981 981 981 982 983 982 982 986 995 1000 1019 1043 1061 1073 1086 1099 1119 1137 1153 1182 1205 1222 1233 1239 1248 1261 1276 1291 1304 1319 1330 1338 1347 1356 1363 1368 1373 1374 1371 1365 1358 1347 1340 1328 1307 1287 1280 1253 1243 1237 1217 1205 1186 1172 1162 1151 1140 1122 1101 1083 1067 1050 1034 1027 1018 1011 1001 995 988 983 979 974 971 968 966 965 965 966 970 973 974 973 970 964 960 958 959 961 960 958 957 955 952 949 944 939 935 934 934 936 934 933 935 937 938 939 941 938 930 917 905 903 894 894 897 905 908 908 908 908 909 908 905 902 897 891 880 858 836 812 804 791 778 763 741 722 706 691 677 663 646 629 617 603 586 575 561 551 544 529 496 463 387 322 298 273 255 247 235 228 212 211 210 206 205 204 209 203 201 199 202 200 207 211 211 207 206 202 201 203 202 202 196 194 191 191 190 193 193 194 194 194 193 192 190 191 193 199 202 203 204 207 209 208 208 207 201 193 186 191 192 194 195 195 195 199 199 201 198 195 197 204 208 210 211 214 222 222 223 222 221 220 219 224 217 221 222 214 211 209 216 215 213 213 209 207 204 203 203 203 203 205 208 209 210 213 222 233 238 239 224 210 205 207 210 219 228 232 237 240 243 246 250 254 257 260 260 260 261 260 258 259 260 261 263 267 273 279 289 297 305 312 322 334 343 345 344 347 352 359 366 375 379 382 383 384 384 383 380 385 392 407 416 425 429 431 435 441 446 448 448 452 456 460 466 474 481 487 493 504 511 523 543 558 567 577 591 600 609 617 626 632 639 643 646 647 651 658 666 671 679 685 691 698 708 706 714 725 740 768 784 789 802 813 825 844 852 858 866 874 892 905 912 921 933 945 961 964 970 975 985 988 991 994 990 988 986 984 980 979 981 979 978 972 955 936 920 908 905 893 891 891 892 896 900 902 904 902 901 902 899 897 895 894 891 885 877 872 860 851 847 842 835 822 808 799 793 789 786 787 793 799 803 800 795 794 787 787 779 767 755 742 736 730 732 730 729 730 730 734 742 754 766 773 782 790 798 807 817 827 831 838 841 846
1052 1047 1042 1034 1025 1014 1004 999 994 992 989 987 987 988 989 989 989 989 990 994 1005 1014 1031 1049 1065 1075 1086 1104 1125 1141 1159 1188 1214 1224 1232 1237 1247 1263 1281 1294 1304 1319 1333 1345 1353 1359 1363 1368 1369 1366 1362 1359 1354 1346 1326 1308 1282 1259 1242 1232 1214 1198 1189 1160 1160 1153 1146 1133 1114 1092 1077 1064 1048 1040 1034 1024 1010 1000 994 988 983 977 973 971 968 967 966 965 965 970 975 978 977 976 969 963 958 956 956 955 953 953 953 952 951 946 939 935 933 934 935 935 935 935 937 939 940 940 938 931 920 912 910 906 906 908 910 912 912 910 908 907 904 901 897 890 883 874 854 833 810 798 784 772 755 738 711 696 682 664 652 636 620 605 588 571 561 546 535 525 510 494 463 390 337 275 272 247 237 230 222 212 213 214 205 207 198 197 204 202 199 198 200 208 207 214 210 209 209 205 204 203 201 200 196 194 194 193 195 194 196 198 194 193 194 193 192 193 195 198 201 203 203 204 203 202 202 199 195 194 191 196 194 194 188 191 193 198 197 195 196 198 203 205 209 210 219 217 225 224 229 226 220 217 221 219 219 216 210 206 204 206 206 208 210 211 210 208 207 206 206 208 208 209 209 211 213 220 225 231 235 230 219 209 210 212 215 227 241 246 244 247 250 254 256 260 266 267 266 265 265 264 264 266 269 273 276 286 292 294 304 312 322 330 340 345 348 350 354 357 362 369 377 384 387 388 390 392 386 387 393 399 410 419 424 428 432 432 439 438 445 448 452 457 463 467 476 485 492 497 507 517 533 547 562 573 584 594 604 610 620 631 636 641 646 650 653 658 667 675 680 685 691 697 707 715 718 728 741 760 771 790 797 805 814 823 840 853 861 869 885 891 898 905 921 941 954 966 973 980 989 995 994 996 994 992 992 992 990 988 983 983 980 978 973 962 947 926 910 903 894 891 894 894 897 902 907 908 905 906 906 906 903 902 901 899 894 890 879 870 863 854 844 832 818 803 796 791 788 788 791 796 800 803 803 794 789 780 780 773 764 751 745 738 738 739 735 734 732 733 735 744 754 761 769 776 783 789 795 804 815 823 836 842 844
1057 1052 1045 1037 1027 1017 1008 1001 997 997 997 996 995 994 996 997 996 997 999 1001 1006 1012 1024 1038 1053 1060 1073 1092 1111 1131 1147 1162 1183 1207 1218 1227 1240 1250 1268 1279 1287 1298 1313 1329 1339 1344 1349 1353 1358 1361 1361 1359 1355 1339 1327 1309 1277 1253 1243 1225 1206 1186 1166 1157 1151 1144 1136 1126 1109 1088 1073 1061 1051 1038 1029 1020 1009 998 992 991 987 980 974 970 968 969 965 967 967 972 975 979 980 979 971 964 957 952 949 949 948 949 950 949 946 941 937 937 939 938 938 938 938 938 939 940 941 940 937 932 917 913 914 912 913 913 915 917 916 914 911 907 901 895 890 885 874 859 843 826 810 797 782 769 754 733 707 689 675 659 645 630 611 584 575 566 553 538 523 505 498 472 455 384 333 267 261 236 234 221 217 213 210 212 207 202 196 194 198 201 199 199 200 201 205 204 207 212 209 205 202 199 200 203 197 196 195 197 200 202 201 200 199 197 196 193 193 194 194 193 195 198 201 204 204 204 203 199 193 196 194 194 193 194 191 191 192 194 196 193 197 200 204 206 209 211 216 226 232 222 221 213 212 215 215 216 209 210 201 205 204 204 207 207 207 211 212 209 208 208 209 210 211 211 210 212 217 220 224 218 229 227 218 213 209 209 215 235 246 253 256 253 255 258 260 264 268 270 270 273 275 273 272 270 272 277 282 291 299 303 307 317 330 338 344 346 347 350 354 358 365 375 384 389 394 395 396 396 396 397 399 406 413 420 424 424 424 427 432 436 442 446 449 452 456 464 480 490 494 501 509 521 539 552 563 577 585 594 603 608 617 627 633 640 646 650 653 659 669 676 683 688 695 702 714 723 736 747 763 778 792 802 809 815 822 832 843 858 865 877 882 886 900 904 928 947 961 971 973 978 987 993 993 995 994 994 995 998 998 996 994 990 986 977 967 953 941 927 910 904 897 893 891 891 893 902 910 911 911 909 908 909 910 910 909 906 900 895 884 876 867 852 837 830 817 804 795 793 790 791 794 796 799 801 800 793 779 772 772 764 759 750 744 741 741 740 740 739 737 735 735 741 748 751 759 769 775 783 789 798 803 810 822 831 837
