ncols        356
nrows        51
xllcorner    10.684204000000
yllcorner    42.934570000000
dx           0.000277744382
dy           0.000278136076
NODATA_value -32768
-32768 -32768 -32768 -32768 -32768 -32768 -32768 -32768 -32768 -32768 -32768 -32768 -32768 -32768 -32768 33 34 36 36 39 43 47 50 53 53 51 51 53 56 59 62 68 73 77 79 82 84 82 77 72 66 65 68 67 64 61 62 62 67 72 81 88 92 96 101 106 111 116 123 128 131 131 128 130 125 122 118 121 126 131 135 135 135 136 136 137 137 138 140 139 136 131 126 122 120 117 115 115 111 111 110 109 109 106 105 103 100 96 94 92 93 89 86 84 78 72 66 62 60 60 63 70 76 85 91 92 93 95 96 96 96 98 98 99 99 101 98 92 83 74 72 67 64 58 55 54 53 55 50 57 63 68 69 72 76 79 80 81 80 79 80 82 89 94 96 97 96 100 104 113 120 126 130 130 132 135 141 145 146 142 138 133 126 120 114 111 106 103 100 98 95 96 95 94 94 96 98 103 111 117 121 122 121 123 122 121 118 117 110 108 108 109 116 117 119 119 117 119 121 122 128 139 148 152 160 165 169 169 170 170 166 161 157 149 140 138 134 131 122 115 108 101 93 86 81 84 87 89 93 98 102 106 108 110 114 119 124 129 136 140 142 145 152 158 163 169 177 178 180 177 174 168 167 165 163 159 152 147 142 139 134 128 123 119 113 106 103 103 107 114 121 128 132 135 139 144 152 160 167 170 176 178 181 180 173 162 154 146 138 132 127 133 142 150 153 158 160 157 154 150 152 151 152 149 -32768 -32768 -32768 -32768 -32768 -32768 -32768 -32768 -32768 -32768 -32768 -32768 -32768 -32768 -32768 -32768 -32768 -32768 -32768 -32768 -32768 -32768 -32768 -32768 -32768 -32768 -32768 -32768 -32768 -32768 -32768 -32768 -32768 -32768 -32768 -32768 -32768 -32768 -32768 -32768 -32768 -32768
-32768 -32768 -32768 -32768 -32768 -32768 -32768 -32768 -32768 -32768 -32768 -32768 -32768 -32768 -32768 -32768 32 33 34 37 40 42 44 48 49 50 53 57 59 61 64 68 71 75 79 82 84 82 77 68 62 61 64 66 65 64 63 66 71 79 84 89 94 98 101 104 109 114 119 126 127 127 124 120 114 113 114 117 124 130 135 137 136 136 134 133 130 129 130 129 126 121 118 116 115 112 110 106 105 105 106 108 106 104 102 99 95 92 90 88 90 90 88 81 76 72 66 60 58 59 59 63 71 78 85 89 90 91 90 92 94 96 99 100 102 104 98 88 80 74 70 66 63 58 57 56 54 54 56 60 65 68 70 70 72 75 75 74 74 74 74 75 79 83 87 91 94 98 100 105 115 122 126 126 128 131 136 141 142 141 137 131 128 124 120 114 110 102 97 94 91 93 93 93 94 95 97 102 107 113 119 120 121 124 125 125 123 119 115 109 105 102 106 109 113 116 113 117 120 120 129 134 136 144 152 158 161 166 168 168 169 162 152 145 140 136 130 122 115 110 101 96 91 84 82 86 92 95 96 96 98 105 107 111 117 121 126 131 135 140 142 148 152 157 161 169 173 179 181 179 173 168 165 165 166 162 159 154 150 144 140 134 128 123 117 111 105 106 106 113 119 124 128 133 137 143 148 156 161 167 172 176 179 180 178 169 163 153 145 137 129 128 132 140 149 152 154 150 151 151 150 152 150 150 145 144 -32768 -32768 -32768 -32768 -32768 -32768 -32768 -32768 -32768 -32768 -32768 -32768 -32768 -32768 -32768 -32768 -32768 -32768 -32768 -32768 -32768 -32768 -32768 -32768 -32768 -32768 -32768 -32768 -32768 -32768 -32768 -32768 -32768 -32768 -32768 -32768 -32768 -32768 -32768 -32768
-32768 -32768 -32768 -32768 -32768 -32768 -32768 -32768 -32768 -32768 -32768 -32768 -32768 -32768 -32768 -32768 29 32 34 37 41 43 46 50 54 58 61 63 61 62 63 67 73 76 78 82 81 75 71 63 59 57 59 64 64 64 64 66 72 78 85 90 95 97 100 104 112 117 121 124 124 123 119 114 106 109 113 121 124 129 133 134 134 131 129 126 122 120 120 118 116 112 110 109 109 106 104 100 98 100 103 107 106 105 102 98 93 91 86 84 85 87 86 83 76 69 64 59 55 55 56 61 65 69 71 77 81 81 84 87 92 96 98 100 103 102 97 87 77 69 65 63 61 58 57 52 49 50 56 59 64 66 70 72 73 73 72 70 69 70 70 72 75 76 78 82 87 91 94 98 106 110 112 116 120 125 131 136 140 142 139 135 131 129 128 124 120 112 105 100 99 97 98 98 95 95 97 100 104 109 113 116 120 123 126 126 124 122 115 110 104 100 99 103 107 109 113 116 117 124 130 133 133 137 147 152 154 157 159 161 158 151 142 136 131 126 118 111 106 102 97 94 90 87 83 86 89 94 97 98 102 106 110 113 117 121 127 133 136 138 142 147 152 155 158 162 170 176 179 176 170 167 167 168 167 165 164 160 158 154 147 138 131 125 119 115 112 109 107 110 116 118 122 128 132 139 146 153 159 165 166 172 175 179 179 177 167 157 146 137 130 121 124 130 140 142 143 146 147 147 148 146 141 144 142 139 136 -32768 -32768 -32768 -32768 -32768 -32768 -32768 -32768 -32768 -32768 -32768 -32768 -32768 -32768 -32768 -32768 -32768 -32768 -32768 -32768 -32768 -32768 -32768 -32768 -32768 -32768 -32768 -32768 -32768 -32768 -32768 -32768 -32768 -32768 -32768 -32768 -32768 -32768 -32768
-32768 -32768 -32768 -32768 -32768 -32768 -32768 -32768 -32768 -32768 -32768 -32768 -32768 -32768 -32768 -32768 36 38 40 43 46 47 51 56 61 64 69 66 63 62 63 67 72 74 77 77 78 73 67 62 58 56 54 58 60 63 67 69 74 80 85 90 94 99 103 109 115 118 124 124 122 120 110 105 103 104 115 121 123 124 125 128 130 128 124 119 114 112 111 109 108 106 104 103 103 102 99 97 97 98 102 106 106 106 104 100 93 88 84 79 76 77 74 74 70 68 63 58 53 51 53 56 61 65 68 72 76 78 82 87 91 94 97 98 99 99 94 83 76 71 65 62 58 53 51 47 46 48 54 60 66 68 71 71 71 69 67 67 65 65 66 67 70 71 74 77 82 85 87 91 95 101 108 115 121 126 130 133 137 139 140 141 139 136 134 132 129 123 115 113 110 107 105 101 96 93 93 96 100 104 110 114 119 123 125 126 125 121 116 112 105 100 96 102 106 108 110 113 118 120 122 124 129 132 139 142 142 145 147 148 145 139 132 125 121 115 109 105 102 98 94 90 87 87 86 85 87 92 96 99 103 106 109 110 115 121 128 132 134 139 144 151 153 155 158 162 166 173 181 178 172 169 169 169 167 163 161 162 160 157 152 145 137 130 124 121 117 111 105 104 109 115 117 122 128 136 143 148 151 158 162 165 171 176 177 181 172 164 150 139 127 122 120 124 130 134 139 141 139 137 137 139 139 141 139 134 133 132 132 -32768 -32768 -32768 -32768 -32768 -32768 -32768 -32768 -32768 -32768 -32768 -32768 -32768 -32768 -32768 -32768 -32768 -32768 -32768 -32768 -32768 -32768 -32768 -32768 -32768 -32768 -32768 -32768 -32768 -32768 -32768 -32768 -32768 -32768 -32768 -32768 -32768
-32768 -32768 -32768 -32768 -32768 -32768 -32768 -32768 -32768 -32768 -32768 -32768 -32768 -32768 -32768 -32768 48 50 51 52 52 53 56 62 68 72 72 71 65 61 61 66 69 72 70 70 69 67 67 62 53 54 54 56 61 63 65 67 72 77 82 88 95 102 108 114 117 121 124 124 123 120 110 103 102 102 111 113 117 122 124 127 126 123 119 113 108 105 101 99 99 99 101 100 98 98 98 96 97 100 103 106 107 108 105 100 93 86 81 76 73 70 69 68 63 63 60 58 54 52 53 56 62 69 75 77 78 79 81 83 87 90 94 97 98 95 90 81 74 70 65 62 58 51 48 47 45 48 52 59 62 66 69 69 65 62 60 59 59 59 62 64 68 71 71 75 78 82 87 91 98 106 115 123 127 131 133 134 135 137 139 141 141 140 140 139 135 128 125 123 121 117 113 108 100 97 94 94 100 105 108 111 116 123 127 130 128 124 119 114 107 102 100 101 103 105 105 108 107 108 110 111 113 121 127 130 132 136 138 136 132 128 120 116 113 110 105 101 98 92 89 84 83 84 84 84 88 92 97 101 103 108 111 112 116 118 122 128 133 139 146 151 154 157 157 159 164 170 171 171 169 160 160 162 164 162 158 156 153 152 150 145 138 134 129 122 116 112 105 103 102 108 114 119 123 131 137 144 149 153 160 165 167 169 172 177 172 168 160 153 138 126 123 123 125 125 129 132 134 136 136 136 137 136 133 131 129 129 132 132 128 -32768 -32768 -32768 -32768 -32768 -32768 -32768 -32768 -32768 -32768 -32768 -32768 -32768 -32768 -32768 -32768 -32768 -32768 -32768 -32768 -32768 -32768 -32768 -32768 -32768 -32768 -32768 -32768 -32768 -32768 -32768 -32768 -32768 -32768 -32768
-32768 -32768 -32768 -32768 -32768 -32768 -32768 -32768 -32768 -32768 -32768 -32768 -32768 -32768 -32768 -32768 55 58 59 57 57 58 62 66 71 78 75 70 64 61 58 63 62 62 64 67 64 61 59 54 51 51 52 56 61 61 64 65 68 72 78 83 91 98 106 111 118 123 124 123 120 112 108 102 103 107 107 110 114 120 121 121 120 118 114 110 106 103 99 94 92 91 93 94 94 94 94 95 97 99 102 104 107 107 104 97 89 81 75 73 70 67 65 62 57 57 56 59 58 58 59 62 66 74 79 81 83 82 82 84 86 87 88 91 94 92 87 80 73 70 66 62 58 52 46 45 45 50 52 57 58 61 61 60 59 57 55 55 55 58 62 64 67 71 73 76 79 83 89 94 103 113 122 129 134 136 137 138 137 138 138 138 140 139 138 138 135 130 127 123 120 116 110 104 100 94 90 91 95 101 106 110 115 122 127 133 133 129 122 115 111 105 99 95 95 95 98 103 101 102 103 107 110 116 123 128 128 128 128 126 120 114 110 108 107 106 103 99 94 90 83 81 78 78 80 82 88 95 103 106 109 111 116 119 121 122 123 128 132 137 141 145 151 155 156 155 156 159 161 169 167 158 155 152 152 150 147 147 146 146 145 142 141 139 133 125 117 111 106 103 102 104 111 115 121 127 133 138 144 150 158 162 164 165 169 174 177 172 164 159 149 134 125 118 114 119 124 127 132 135 136 137 138 135 132 130 128 126 127 128 126 126 -32768 -32768 -32768 -32768 -32768 -32768 -32768 -32768 -32768 -32768 -32768 -32768 -32768 -32768 -32768 -32768 -32768 -32768 -32768 -32768 -32768 -32768 -32768 -32768 -32768 -32768 -32768 -32768 -32768 -32768 -32768 -32768 -32768 -32768
-32768 -32768 -32768 -32768 -32768 -32768 -32768 -32768 -32768 -32768 -32768 -32768 -32768 -32768 -32768 -32768 66 69 70 68 67 64 64 67 72 75 73 68 64 58 56 61 63 62 64 65 61 59 53 50 47 50 50 57 62 63 65 65 69 73 76 83 90 97 105 110 117 120 117 114 108 101 95 95 95 98 101 104 106 105 106 109 111 111 109 106 105 101 96 90 88 86 84 86 87 91 91 96 99 101 103 102 102 102 102 97 88 81 76 75 71 69 64 58 53 53 55 61 63 66 67 72 77 81 85 87 88 88 86 86 88 88 90 89 89 88 82 75 69 68 66 63 57 51 50 48 52 53 52 53 53 55 54 55 56 58 60 62 62 67 69 69 68 69 71 75 81 87 93 99 107 115 123 131 136 138 139 140 140 138 137 136 134 133 133 133 130 127 124 119 114 109 100 95 91 89 87 89 92 95 101 108 112 118 125 131 132 133 129 122 116 110 102 95 91 89 92 95 97 99 102 106 110 114 122 122 121 121 121 118 110 103 101 100 100 101 98 95 89 85 81 77 75 74 78 83 88 95 101 107 111 113 116 119 120 120 121 123 127 131 136 139 145 146 141 144 150 158 161 159 157 155 150 146 143 141 140 141 144 143 143 142 142 139 133 127 123 114 108 104 101 102 106 110 116 123 128 135 138 144 146 152 161 161 166 170 174 173 177 169 160 145 133 126 121 119 123 125 126 132 137 140 139 137 134 131 129 126 125 124 119 119 118 121 -32768 -32768 -32768 -32768 -32768 -32768 -32768 -32768 -32768 -32768 -32768 -32768 -32768 -32768 -32768 -32768 -32768 -32768 -32768 -32768 -32768 -32768 -32768 -32768 -32768 -32768 -32768 -32768 -32768 -32768 -32768 -32768
-32768 -32768 -32768 -32768 -32768 -32768 -32768 -32768 -32768 -32768 -32768 -32768 -32768 -32768 -32768 -32768 73 75 76 74 72 69 66 65 64 67 65 61 58 56 55 54 54 59 57 59 57 54 45 42 42 44 50 55 59 61 63 66 72 79 85 89 94 101 107 110 115 112 109 104 96 96 89 90 90 89 92 96 95 94 96 101 105 105 105 105 103 98 92 87 85 84 81 79 79 84 89 94 97 100 102 105 105 104 102 96 88 81 77 73 71 68 64 57 52 49 51 54 61 68 73 77 82 84 87 90 87 88 91 90 88 87 87 89 87 83 79 71 65 62 60 58 53 49 50 52 53 50 49 50 50 51 52 54 55 57 60 66 71 75 77 75 74 75 75 77 82 87 94 101 108 116 126 134 140 143 144 142 139 135 132 129 128 127 128 126 123 120 117 114 109 103 96 91 86 83 83 86 90 94 100 104 109 115 121 127 134 133 128 123 119 114 109 102 97 89 85 87 89 90 98 105 110 111 115 118 116 118 116 115 109 104 102 97 93 91 88 86 82 82 81 77 75 75 79 85 90 93 98 103 107 109 109 105 107 108 113 117 124 131 136 139 141 140 142 143 147 149 153 153 152 152 149 147 141 137 137 137 138 138 137 136 138 137 133 128 123 120 110 103 99 99 101 105 111 118 123 126 130 133 136 141 150 156 160 166 167 169 172 172 169 159 147 138 129 121 120 122 124 129 133 135 140 139 136 133 129 125 125 120 119 115 111 110 111 -32768 -32768 -32768 -32768 -32768 -32768 -32768 -32768 -32768 -32768 -32768 -32768 -32768 -32768 -32768 -32768 -32768 -32768 -32768 -32768 -32768 -32768 -32768 -32768 -32768 -32768 -32768 -32768 -32768 -32768 -32768
-32768 -32768 -32768 -32768 -32768 -32768 -32768 -32768 -32768 -32768 -32768 -32768 -32768 -32768 -32768 -32768 82 82 79 76 72 67 64 62 61 60 58 57 54 52 52 50 51 53 55 54 50 48 41 39 39 41 49 54 56 58 60 66 74 83 90 95 99 104 109 112 113 105 101 95 91 90 86 83 85 83 83 84 83 86 87 97 101 102 102 99 97 93 88 84 82 81 78 76 76 79 87 93 98 102 104 109 109 109 105 97 90 85 79 75 71 66 62 57 53 48 49 51 59 68 74 77 84 89 91 91 94 95 94 91 88 84 82 83 82 78 75 69 64 60 56 54 51 48 48 50 50 48 47 48 49 51 54 57 58 60 64 72 79 82 81 83 84 84 83 82 84 89 97 104 112 121 126 132 135 136 138 140 133 128 125 124 123 122 122 121 116 112 110 108 105 101 96 90 86 83 86 88 92 98 103 106 110 114 120 124 130 131 133 130 124 120 115 111 107 98 89 84 82 88 93 96 102 104 108 108 110 109 111 110 107 104 102 99 94 87 83 79 79 79 81 76 75 76 79 85 91 96 98 100 102 101 99 98 102 105 108 111 117 125 131 135 134 134 135 145 143 144 145 147 147 152 154 151 145 140 138 133 132 132 131 130 131 131 127 123 121 114 108 102 99 98 99 103 108 115 121 123 125 128 128 133 139 149 153 158 162 165 170 168 167 161 155 144 131 129 121 117 118 124 127 136 137 136 135 131 128 123 119 116 111 108 107 109 116 113 109 -32768 -32768 -32768 -32768 -32768 -32768 -32768 -32768 -32768 -32768 -32768 -32768 -32768 -32768 -32768 -32768 -32768 -32768 -32768 -32768 -32768 -32768 -32768 -32768 -32768 -32768 -32768 -32768 -32768
-32768 -32768 -32768 -32768 -32768 -32768 -32768 -32768 -32768 -32768 -32768 -32768 -32768 -32768 -32768 -32768 86 86 82 75 67 63 60 58 55 54 54 52 49 46 45 46 46 47 48 48 48 42 39 42 45 45 53 54 58 61 64 69 79 86 93 100 104 108 108 106 102 94 87 85 85 84 82 80 79 79 75 72 76 77 83 90 95 97 96 92 88 83 80 78 77 76 75 75 75 78 85 90 95 100 105 110 111 111 106 99 92 86 79 72 68 65 62 61 54 50 47 50 58 66 72 76 83 87 91 94 94 94 93 91 84 80 80 76 75 75 73 69 63 57 53 52 49 47 45 47 49 48 49 49 51 53 56 59 61 63 69 77 84 89 91 92 94 94 93 94 96 99 104 109 116 120 123 127 132 135 138 139 131 125 122 119 118 114 113 112 110 107 105 103 101 98 93 90 87 86 87 88 92 96 102 106 110 113 116 119 125 131 138 133 131 125 123 124 118 109 98 89 87 91 92 93 97 99 100 99 100 104 104 101 99 98 95 93 91 88 85 81 78 78 77 75 74 71 74 77 83 89 90 91 92 94 95 94 93 96 98 104 110 111 121 128 131 130 135 138 141 143 144 145 148 151 154 155 150 145 142 133 130 126 123 122 121 121 120 118 117 114 109 101 97 98 99 103 110 117 122 122 123 127 130 136 139 145 146 151 155 161 166 167 168 163 158 148 142 137 127 118 115 118 124 128 131 131 132 128 124 119 115 109 105 103 103 104 113 113 111 111 -32768 -32768 -32768 -32768 -32768 -32768 -32768 -32768 -32768 -32768 -32768 -32768 -32768 -32768 -32768 -32768 -32768 -32768 -32768 -32768 -32768 -32768 -32768 -32768 -32768 -32768 -32768 -32768
-32768 -32768 -32768 -32768 -32768 -32768 -32768 -32768 -32768 -32768 -32768 -32768 -32768 -32768 -32768 -32768 84 83 77 70 64 60 60 57 55 50 47 45 42 38 37 39 39 41 44 46 44 42 42 48 48 52 59 62 66 71 74 76 80 85 93 100 102 102 99 92 87 81 78 78 78 78 78 81 82 83 79 75 73 76 79 82 84 88 89 86 81 77 75 72 71 71 70 71 76 81 85 90 95 100 108 112 113 112 108 103 94 83 75 73 71 69 66 63 56 47 45 50 55 63 71 77 82 86 89 88 88 88 87 84 81 78 74 70 69 68 68 65 61 56 53 53 48 45 44 46 50 51 50 49 49 52 55 60 64 67 72 77 82 86 92 95 98 100 102 106 107 108 112 116 121 121 122 124 126 131 134 136 133 127 123 121 115 109 104 102 104 104 103 99 95 92 89 89 89 89 91 92 94 97 100 103 107 111 115 121 126 130 134 137 134 130 126 123 117 110 105 102 94 90 91 93 93 95 96 96 97 97 96 96 91 91 90 85 83 81 79 79 78 80 78 77 74 70 70 72 76 80 84 87 89 91 91 89 93 96 98 98 101 109 115 119 124 129 131 136 139 140 141 145 149 154 158 156 152 146 141 138 132 126 123 122 119 119 117 115 116 113 110 103 97 96 96 100 106 112 117 117 118 122 127 132 139 141 142 146 151 158 161 163 161 156 151 147 142 135 126 118 115 116 119 121 123 127 124 122 116 113 111 109 106 103 102 103 102 110 113 113 108 105 -32768 -32768 -32768 -32768 -32768 -32768 -32768 -32768 -32768 -32768 -32768 -32768 -32768 -32768 -32768 -32768 -32768 -32768 -32768 -32768 -32768 -32768 -32768 -32768 -32768 -32768
-32768 -32768 -32768 -32768 -32768 -32768 -32768 -32768 -32768 -32768 -32768 -32768 -32768 -32768 -32768 -32768 80 79 75 67 61 58 56 55 50 48 44 41 37 34 32 32 33 37 38 41 42 42 46 53 58 63 67 72 75 77 79 80 81 86 93 98 97 94 87 81 75 73 71 73 75 79 81 85 86 84 80 74 68 67 69 70 73 77 77 75 73 70 67 66 66 68 69 70 76 84 89 94 100 107 110 114 114 113 109 101 93 81 72 69 69 70 68 63 57 51 48 48 52 59 67 75 80 84 85 85 84 85 83 80 75 71 69 67 60 60 60 58 53 51 47 45 42 41 41 44 47 49 50 50 50 50 53 59 63 65 68 72 74 78 83 89 95 101 107 114 116 116 117 117 120 121 121 120 124 132 135 135 133 129 123 119 110 104 100 97 100 103 103 102 101 96 92 89 88 87 89 92 94 94 96 98 101 105 113 118 121 126 129 128 126 126 122 116 109 101 99 97 94 90 91 94 96 96 100 101 102 101 100 99 94 90 88 83 80 78 77 75 76 78 77 76 75 72 72 72 76 80 84 87 89 92 94 97 101 101 100 102 105 110 112 118 123 133 138 140 141 142 142 143 150 149 151 152 152 150 145 139 133 127 123 121 118 118 118 116 115 112 109 106 101 98 97 99 101 107 110 112 114 118 125 130 134 137 139 143 147 152 153 153 149 144 141 139 137 129 120 115 113 117 117 115 116 116 115 114 109 109 106 106 106 103 100 98 100 102 106 109 109 107 102 97 -32768 -32768 -32768 -32768 -32768 -32768 -32768 -32768 -32768 -32768 -32768 -32768 -32768 -32768 -32768 -32768 -32768 -32768 -32768 -32768 -32768 -32768 -32768 -32768
-32768 -32768 -32768 -32768 -32768 -32768 -32768 -32768 -32768 -32768 -32768 -32768 -32768 -32768 -32768 -32768 76 74 71 67 61 56 50 48 45 43 42 37 32 26 25 25 27 29 32 36 39 44 46 55 62 69 73 77 79 80 81 81 81 84 87 87 89 82 76 68 67 68 69 72 76 81 85 87 86 85 80 74 69 67 66 65 65 67 67 65 64 63 63 61 66 68 70 72 79 89 96 104 109 113 118 119 120 115 107 100 94 82 73 70 68 65 64 60 54 51 48 46 51 57 63 71 79 83 85 84 81 79 76 73 70 65 63 58 53 52 49 46 45 42 40 39 39 41 42 44 47 49 49 51 50 51 55 59 64 66 68 70 72 77 82 88 95 102 109 116 122 124 123 120 119 120 121 123 126 134 136 132 130 126 121 116 109 104 98 95 98 99 100 102 100 99 94 90 87 85 86 88 91 94 95 96 99 105 111 112 113 114 115 117 117 115 111 108 103 98 95 90 88 90 90 92 94 97 98 102 107 108 108 106 102 100 96 89 87 83 78 75 74 75 75 74 74 74 74 76 80 83 86 89 92 95 101 105 109 107 107 109 111 119 122 125 126 131 133 136 140 144 143 142 145 149 155 156 158 158 154 144 142 138 131 127 123 121 118 116 112 111 109 107 105 102 100 100 100 100 103 106 112 117 120 122 126 131 137 139 145 148 148 146 141 137 134 132 129 123 117 111 108 111 117 119 122 121 119 116 111 109 108 110 108 104 101 98 94 96 98 102 105 105 104 100 95 -32768 -32768 -32768 -32768 -32768 -32768 -32768 -32768 -32768 -32768 -32768 -32768 -32768 -32768 -32768 -32768 -32768 -32768 -32768 -32768 -32768 -32768 -32768
-32768 -32768 -32768 -32768 -32768 -32768 -32768 -32768 -32768 -32768 -32768 -32768 -32768 -32768 -32768 -32768 70 69 66 63 57 50 44 41 40 40 37 31 23 21 20 19 20 22 26 33 38 42 48 52 61 68 75 79 79 78 78 77 78 78 77 76 70 66 63 63 63 66 69 73 77 83 85 87 87 84 81 77 72 68 65 61 62 63 61 59 58 59 60 63 67 69 72 76 84 94 102 111 117 122 125 123 120 117 110 105 96 85 76 73 68 63 62 59 55 52 49 48 50 54 60 69 77 80 80 78 76 73 69 65 61 59 54 49 43 41 41 40 38 36 36 36 39 44 48 50 52 54 54 56 58 56 60 64 67 69 71 74 77 80 83 88 94 104 112 119 124 125 124 121 120 121 122 125 129 131 131 130 128 125 121 117 112 105 98 92 90 91 94 95 95 92 90 87 85 83 83 87 91 96 98 100 102 106 109 108 105 103 102 102 105 102 100 98 95 93 90 88 88 92 89 93 96 98 99 102 106 111 113 114 112 109 108 102 96 90 83 80 77 70 71 73 72 74 80 82 85 86 91 94 99 106 111 114 114 115 115 118 122 127 128 129 132 135 138 140 144 150 151 150 151 155 160 162 164 163 162 157 151 144 140 133 129 126 124 120 115 112 111 109 107 102 99 99 98 97 97 100 106 110 115 119 122 127 132 135 138 142 141 138 135 133 130 126 120 116 114 99 100 111 108 116 124 123 121 119 115 113 110 108 106 103 101 97 96 93 93 93 96 98 99 98 96 92 89 -32768 -32768 -32768 -32768 -32768 -32768 -32768 -32768 -32768 -32768 -32768 -32768 -32768 -32768 -32768 -32768 -32768 -32768 -32768 -32768 -32768
-32768 -32768 -32768 -32768 -32768 -32768 -32768 -32768 -32768 -32768 -32768 -32768 -32768 -32768 -32768 -32768 -32768 62 59 52 48 43 40 39 38 38 33 26 22 20 20 19 17 18 21 26 30 36 43 50 60 68 73 73 73 73 74 71 69 67 64 59 56 57 59 60 62 66 68 74 79 86 89 90 88 85 81 76 71 69 64 61 57 57 57 56 58 61 65 68 69 70 75 83 92 99 108 118 122 125 124 121 118 115 110 103 96 88 83 77 74 69 67 63 60 57 50 44 49 53 59 67 70 75 75 73 71 70 63 59 54 49 43 37 35 36 37 37 36 35 35 38 43 49 54 56 59 60 61 61 60 60 63 66 70 72 75 78 82 85 87 92 99 107 114 118 121 124 126 125 124 123 123 124 127 130 132 129 129 125 118 116 111 105 100 94 89 85 84 87 88 88 85 84 83 82 83 87 93 99 103 105 106 108 109 104 100 98 96 94 95 95 94 92 92 86 82 82 80 82 87 92 95 100 102 106 111 112 113 114 114 113 113 110 104 95 87 81 75 68 66 67 69 72 80 82 86 90 95 99 104 111 115 118 119 120 121 125 128 129 129 132 135 136 139 145 148 150 154 155 157 159 162 168 169 169 169 164 159 150 146 147 143 142 138 132 125 119 114 110 108 106 104 101 97 95 94 97 102 107 109 119 121 123 127 132 138 140 141 136 127 124 120 116 112 111 102 97 96 105 114 118 132 134 131 129 124 117 113 111 108 104 101 97 94 91 89 88 88 89 92 93 94 94 92 93 -32768 -32768 -32768 -32768 -32768 -32768 -32768 -32768 -32768 -32768 -32768 -32768 -32768 -32768 -32768 -32768 -32768 -32768 -32768 -32768
-32768 -32768 -32768 -32768 -32768 -32768 -32768 -32768 -32768 -32768 -32768 -32768 -32768 -32768 -32768 -32768 -32768 50 45 42 43 42 42 41 39 37 33 27 20 22 20 19 19 19 20 23 28 35 39 45 54 62 65 64 63 61 60 59 57 58 56 54 54 56 57 60 63 68 72 77 84 87 87 85 82 78 75 71 69 66 62 58 55 56 56 56 59 63 66 69 69 71 76 85 94 104 112 118 123 124 123 121 118 116 111 105 95 88 82 78 76 73 73 68 59 53 51 42 45 50 54 60 63 68 71 71 69 65 61 54 47 41 36 32 31 32 35 37 37 38 38 42 50 55 63 67 71 71 70 66 65 64 65 67 72 76 81 84 90 93 93 96 101 109 116 120 118 123 125 123 122 120 119 121 127 133 132 132 129 124 120 115 110 107 101 96 89 85 82 84 81 80 77 75 77 78 81 88 96 102 107 110 111 111 108 101 97 93 91 90 90 90 90 91 87 82 81 79 78 77 81 86 94 99 105 110 113 113 113 112 111 109 110 106 101 96 87 81 75 71 67 69 71 74 82 83 87 92 98 101 102 107 112 115 118 120 121 125 128 129 129 134 136 139 143 146 151 153 157 159 159 159 163 169 169 169 170 168 158 155 154 153 152 151 148 141 137 128 118 113 110 109 108 104 98 95 95 94 96 102 107 113 117 122 126 131 136 140 141 137 131 121 116 113 110 100 90 91 96 104 120 130 133 133 136 134 130 124 120 115 111 108 103 98 95 91 88 86 85 86 87 89 90 90 91 93 94 92 -32768 -32768 -32768 -32768 -32768 -32768 -32768 -32768 -32768 -32768 -32768 -32768 -32768 -32768 -32768 -32768 -32768 -32768
-32768 -32768 -32768 -32768 -32768 -32768 -32768 -32768 -32768 -32768 -32768 -32768 -32768 -32768 -32768 -32768 -32768 42 39 38 38 37 37 35 33 31 29 26 19 23 21 22 20 18 19 21 26 32 37 40 46 52 56 56 54 51 52 53 53 53 55 55 57 62 66 68 68 72 75 77 82 83 78 74 70 67 67 67 66 64 59 56 53 54 56 57 60 63 66 70 71 74 78 82 92 102 107 111 116 119 118 118 118 115 111 105 94 87 81 78 75 76 72 64 56 50 42 38 40 43 48 53 57 60 63 67 67 60 54 48 41 37 34 32 29 29 35 41 41 43 46 49 57 63 70 75 76 74 73 71 69 67 65 67 72 77 82 87 93 96 98 100 107 112 117 120 122 124 125 126 119 115 114 117 120 125 127 128 124 122 120 116 111 106 101 95 91 89 85 81 76 73 70 70 73 76 80 88 95 101 105 109 111 111 108 102 94 89 87 85 84 84 83 83 81 80 78 78 79 81 81 87 92 97 101 105 111 113 112 112 108 105 102 95 91 87 83 79 70 66 67 67 70 76 82 85 93 96 100 103 104 105 108 112 114 117 121 126 129 131 135 137 139 142 145 148 154 159 162 158 158 160 162 167 170 171 170 167 164 161 160 160 158 156 153 149 146 139 130 124 118 114 112 106 100 95 94 92 90 90 92 94 102 111 120 127 131 135 138 136 125 120 116 109 102 94 91 94 103 108 130 133 136 138 139 137 134 128 123 117 114 108 103 100 97 93 91 90 89 88 86 85 85 86 88 92 93 91 89 -32768 -32768 -32768 -32768 -32768 -32768 -32768 -32768 -32768 -32768 -32768 -32768 -32768 -32768 -32768 -32768 -32768
-32768 -32768 -32768 -32768 -32768 -32768 -32768 -32768 -32768 -32768 -32768 -32768 -32768 -32768 -32768 -32768 -32768 37 35 32 33 32 32 30 28 26 25 24 23 22 21 22 22 21 23 24 26 29 31 35 40 42 44 48 49 52 51 51 50 53 56 58 63 67 72 75 78 80 79 76 74 71 69 66 64 63 62 62 60 59 60 58 55 55 56 56 59 63 68 72 75 79 82 86 92 98 102 106 112 115 117 119 121 116 108 99 92 84 79 74 70 67 63 56 50 46 41 38 39 42 47 52 56 58 61 62 61 57 51 43 38 35 34 33 33 33 36 45 48 53 56 60 64 67 71 74 74 74 73 73 73 70 67 70 72 75 80 87 92 97 102 106 110 113 115 114 115 115 117 117 115 114 115 117 119 121 124 123 121 119 118 115 111 106 102 97 93 90 86 81 77 74 71 71 73 78 85 92 97 100 102 106 108 107 106 101 95 88 85 83 81 79 80 81 81 77 76 76 80 82 84 83 89 92 97 101 106 108 108 105 101 93 88 85 82 78 74 72 68 66 66 66 70 76 81 83 88 93 97 100 101 103 106 111 117 121 124 131 135 136 136 138 140 141 141 142 144 149 153 155 157 159 160 168 171 170 169 168 164 161 158 160 159 161 162 159 153 149 142 135 128 123 117 112 106 102 98 94 92 90 88 87 87 95 108 118 125 128 129 129 123 115 111 109 98 97 94 104 114 126 133 137 140 144 145 143 138 134 127 119 114 108 104 101 100 99 99 98 96 92 89 86 84 83 85 87 90 88 85 82 81 -32768 -32768 -32768 -32768 -32768 -32768 -32768 -32768 -32768 -32768 -32768 -32768 -32768 -32768 -32768
-32768 -32768 -32768 -32768 -32768 -32768 -32768 -32768 -32768 -32768 -32768 -32768 -32768 -32768 -32768 -32768 -32768 31 29 27 27 26 27 26 25 23 19 19 20 21 21 22 23 25 27 27 26 27 29 32 34 36 38 42 47 51 52 53 53 55 59 62 67 72 77 83 87 86 80 74 67 65 61 62 60 59 58 58 57 56 56 55 53 53 55 57 60 65 71 74 79 83 86 88 92 95 98 103 108 112 113 118 119 114 106 98 93 83 76 73 70 68 63 55 50 48 45 42 42 42 48 54 58 59 58 57 53 45 42 40 37 36 35 36 41 43 46 50 56 59 64 67 71 72 72 74 74 76 78 78 77 75 75 75 76 77 81 86 90 98 106 111 108 112 113 112 112 107 109 113 113 113 114 115 118 121 122 120 117 115 113 108 107 103 100 97 94 92 90 86 83 81 77 76 77 81 87 92 98 101 104 103 105 108 110 107 103 95 86 80 77 73 71 72 75 78 78 75 76 78 83 83 86 91 95 102 102 100 99 95 91 85 81 80 77 74 72 71 67 69 69 72 76 78 77 80 83 88 92 95 98 102 106 112 117 122 126 127 127 129 130 130 130 128 129 127 125 128 135 143 150 155 158 161 163 164 163 160 159 157 158 160 159 159 160 159 156 153 147 141 135 130 123 116 111 108 101 95 90 88 85 84 81 83 89 98 108 118 120 120 117 112 107 101 98 93 104 115 127 132 140 144 144 144 143 143 140 132 123 114 110 107 106 105 105 105 105 103 99 94 90 87 84 79 78 81 85 88 86 83 79 77 -32768 -32768 -32768 -32768 -32768 -32768 -32768 -32768 -32768 -32768 -32768 -32768 -32768 -32768
-32768 -32768 -32768 -32768 -32768 -32768 -32768 -32768 -32768 -32768 -32768 -32768 -32768 -32768 -32768 -32768 -32768 28 25 24 24 23 22 22 21 19 17 16 17 21 22 25 26 26 26 26 27 27 27 28 30 32 36 41 45 47 49 52 55 58 60 65 73 81 87 90 89 84 77 67 60 58 57 56 53 53 53 54 54 53 52 50 50 52 58 62 65 70 74 79 86 90 93 94 95 97 99 102 106 110 110 111 112 106 100 96 89 82 75 71 69 66 64 60 55 53 50 46 42 41 46 49 54 55 55 49 45 42 42 40 37 33 32 35 43 45 50 56 63 66 73 74 75 76 77 78 78 80 82 82 85 80 78 81 83 86 91 93 96 102 109 116 114 115 115 113 110 108 108 112 111 111 111 113 117 121 125 124 122 118 114 112 108 108 105 103 101 100 99 93 90 86 82 82 81 82 86 91 95 98 102 103 103 103 103 105 105 99 92 84 76 72 69 67 67 72 72 74 74 76 79 81 80 85 91 93 94 92 91 88 84 82 79 76 75 73 71 69 72 73 75 77 77 76 73 73 77 82 87 90 92 96 100 104 107 111 116 119 119 119 119 118 117 116 117 119 125 128 134 142 148 155 159 161 160 158 156 154 153 152 155 154 153 156 159 157 155 152 149 146 143 136 128 125 119 111 105 100 94 89 85 82 79 78 79 84 92 98 104 108 106 108 99 97 96 97 113 122 131 141 143 143 141 137 137 133 130 125 119 112 109 108 108 109 109 107 106 105 103 96 90 86 84 80 80 80 82 83 85 82 83 81 79 77 -32768 -32768 -32768 -32768 -32768 -32768 -32768 -32768 -32768 -32768 -32768 -32768
-32768 -32768 -32768 -32768 -32768 -32768 -32768 -32768 -32768 -32768 -32768 -32768 -32768 -32768 -32768 -32768 -32768 23 23 24 22 22 21 21 21 22 22 20 18 17 20 23 24 25 27 28 30 29 28 28 28 29 34 41 45 48 52 55 59 64 71 78 84 87 86 86 84 79 72 63 57 52 49 47 44 46 47 50 51 51 50 50 52 54 59 65 72 77 83 87 93 99 106 106 106 105 104 104 107 110 109 107 103 98 93 88 83 78 72 69 66 64 63 62 59 55 51 43 39 39 40 46 49 49 47 43 42 41 39 33 30 30 32 36 45 48 53 58 64 69 73 76 77 80 79 82 82 87 89 88 90 93 93 94 91 93 97 100 102 105 110 115 116 115 113 110 109 109 113 114 114 114 116 117 119 122 128 129 129 127 122 118 114 114 112 111 107 104 104 103 96 94 89 88 85 82 84 88 90 95 99 102 103 101 99 99 100 98 95 89 82 75 71 67 65 66 68 67 71 73 74 76 76 78 82 84 84 83 81 81 79 77 74 72 72 72 69 65 66 70 72 74 75 74 73 73 72 74 80 83 86 89 93 96 99 101 103 107 111 113 114 112 112 113 115 120 125 131 135 143 149 153 156 160 157 154 154 152 149 146 144 144 148 152 156 156 155 153 150 146 143 142 138 134 124 119 113 107 99 94 91 86 83 78 78 81 85 91 97 102 99 106 100 102 100 106 114 123 132 139 142 143 138 135 129 126 122 119 118 115 113 112 113 114 115 114 110 106 98 93 89 86 85 81 81 78 81 84 83 82 82 81 80 77 74 69 -32768 -32768 -32768 -32768 -32768 -32768 -32768 -32768 -32768 -32768
-32768 -32768 -32768 -32768 -32768 -32768 -32768 -32768 -32768 -32768 -32768 -32768 -32768 -32768 -32768 -32768 -32768 21 23 22 22 20 20 21 22 21 22 22 19 17 18 20 23 26 29 30 30 30 28 25 28 30 34 38 42 47 52 57 62 68 77 84 88 87 84 81 77 74 70 62 55 48 44 41 41 41 41 44 45 49 49 52 54 56 62 67 75 81 86 90 95 101 108 113 113 110 106 105 106 108 105 99 96 90 84 82 79 75 69 65 64 63 62 60 58 55 47 38 33 35 37 41 45 45 43 41 39 37 37 32 29 31 34 42 46 51 56 60 67 74 78 78 80 84 85 89 90 93 95 97 100 101 103 103 104 105 108 107 106 107 108 109 113 112 110 111 110 110 110 113 117 120 122 123 124 127 130 132 131 129 125 121 119 116 112 112 110 108 105 104 102 96 89 85 82 76 76 77 82 82 88 93 95 95 94 94 93 92 90 87 84 79 73 68 66 64 64 63 68 72 76 75 76 77 79 79 79 77 78 77 75 73 70 70 70 71 68 65 64 65 65 71 72 73 75 74 74 75 78 83 88 90 92 94 95 98 100 104 107 110 109 109 109 111 113 118 122 130 137 145 152 156 159 160 157 156 152 150 146 143 139 137 139 143 148 154 157 152 148 148 148 149 144 140 135 129 122 114 107 101 97 91 85 82 79 79 81 83 86 92 96 98 100 102 106 110 116 123 129 135 140 137 134 130 122 118 113 112 113 116 117 117 120 122 120 113 108 103 96 92 89 83 81 82 79 78 78 77 76 76 79 80 77 74 71 68 64 -32768 -32768 -32768 -32768 -32768 -32768 -32768 -32768 -32768
-32768 -32768 -32768 -32768 -32768 -32768 -32768 -32768 -32768 -32768 -32768 -32768 -32768 -32768 -32768 -32768 -32768 19 18 17 17 18 19 21 20 22 21 21 20 19 20 20 22 23 27 29 29 26 26 26 25 26 30 32 35 41 46 50 55 63 68 76 80 80 77 75 72 69 67 64 55 46 40 38 38 39 39 42 46 47 50 52 53 55 60 67 74 79 85 91 97 103 109 113 115 112 108 106 105 104 101 97 88 83 80 77 73 69 65 62 60 59 59 58 53 50 45 37 31 33 34 37 37 39 41 39 34 35 32 29 30 33 37 48 53 60 61 65 72 78 82 89 94 94 95 97 98 101 102 105 106 109 111 113 114 114 114 111 110 109 108 109 109 106 107 107 111 110 110 113 117 122 125 127 129 130 131 132 130 129 127 125 123 120 118 114 111 108 106 100 97 91 83 75 71 69 67 67 68 68 75 81 84 87 88 87 86 83 81 76 78 77 73 69 67 65 63 64 67 67 70 71 72 73 73 76 75 75 74 74 73 72 69 69 69 70 64 66 63 65 68 74 73 73 78 79 81 82 84 88 90 92 93 96 101 102 105 108 108 108 108 106 105 107 112 120 127 133 138 143 154 160 156 157 155 152 150 146 141 138 136 134 136 140 145 151 154 151 150 149 150 153 153 149 144 139 133 122 114 105 103 94 87 85 82 81 80 80 82 85 92 96 97 102 106 112 121 126 132 133 133 130 127 123 118 112 108 105 105 107 111 115 119 118 114 107 100 95 91 88 86 82 80 80 78 76 76 74 73 75 77 79 76 74 73 70 68 67 66 -32768 -32768 -32768 -32768 -32768 -32768 -32768
-32768 -32768 -32768 -32768 -32768 -32768 -32768 -32768 -32768 -32768 -32768 -32768 -32768 -32768 -32768 -32768 -32768 16 17 17 18 19 20 21 21 22 22 20 19 17 19 19 19 22 25 25 27 25 22 21 21 23 26 28 29 33 37 40 45 51 57 61 65 68 70 72 70 65 64 62 54 45 39 37 39 40 41 43 45 47 49 54 57 60 64 69 74 81 87 93 98 102 106 111 114 113 109 108 103 99 98 95 89 83 79 77 77 72 66 61 58 56 55 52 46 44 39 32 27 28 32 33 33 36 37 35 32 33 31 28 29 33 41 52 59 67 69 74 79 84 89 95 100 101 103 105 102 102 104 108 112 116 120 121 120 117 114 111 111 110 110 110 108 108 107 109 109 109 112 114 117 122 127 131 134 134 134 132 131 130 127 123 119 116 113 111 106 101 97 92 86 80 79 76 73 71 69 66 63 63 63 69 73 77 79 79 78 75 74 72 72 72 70 68 65 64 61 61 61 62 67 63 66 66 69 71 72 74 73 72 71 68 67 68 67 61 63 66 64 65 71 71 73 72 73 78 82 85 88 92 95 97 97 97 101 104 107 109 110 113 111 106 103 107 111 116 123 131 139 144 148 151 151 154 154 151 145 138 134 131 131 134 138 140 143 147 149 150 151 151 152 152 155 151 146 142 136 130 123 117 110 101 91 82 79 76 77 78 80 83 89 92 94 101 109 117 120 126 130 130 130 129 125 121 117 113 107 103 100 99 100 102 106 107 103 99 95 92 91 90 89 87 83 80 76 75 73 73 74 72 73 74 75 73 72 69 65 62 61 63 -32768 -32768 -32768 -32768 -32768 -32768
-32768 -32768 -32768 -32768 -32768 -32768 -32768 -32768 -32768 -32768 -32768 -32768 -32768 -32768 -32768 -32768 -32768 18 19 20 21 22 21 22 21 21 22 21 19 22 22 21 20 18 18 20 20 20 21 21 22 24 25 27 28 29 30 32 35 37 41 45 46 48 54 58 58 58 57 55 50 43 39 37 39 42 43 44 46 48 52 57 62 67 71 76 80 86 93 98 103 105 108 110 112 111 112 106 102 96 92 90 89 85 82 81 80 77 68 63 59 58 55 48 45 42 38 31 27 28 31 30 32 33 33 32 30 30 32 31 31 38 46 54 57 66 71 78 84 87 91 98 103 106 108 107 107 108 111 115 118 122 126 125 121 117 115 111 110 110 107 104 104 104 109 110 111 112 115 118 122 125 128 132 134 135 135 134 133 131 126 119 112 106 102 100 96 92 91 85 81 81 81 82 80 76 72 69 67 67 65 65 65 66 70 72 71 68 66 64 65 68 69 67 66 64 63 60 60 64 64 64 65 65 68 69 69 70 71 70 69 66 66 63 63 62 63 63 65 66 72 76 74 74 75 76 83 85 88 92 99 103 106 112 113 114 115 116 116 117 116 113 112 115 118 122 126 133 138 142 143 142 143 144 144 142 134 129 126 125 126 129 134 138 141 142 144 147 150 149 148 149 149 149 151 146 142 136 131 127 121 112 101 93 80 75 77 77 82 86 87 91 98 103 109 119 125 127 130 130 128 127 124 120 117 114 108 104 100 98 99 97 96 98 100 100 99 95 93 92 91 88 84 79 78 77 76 75 75 73 71 72 71 72 69 68 65 63 60 59 57 55 -32768 -32768 -32768 -32768
-32768 -32768 -32768 -32768 -32768 -32768 -32768 -32768 -32768 -32768 -32768 -32768 -32768 -32768 -32768 -32768 -32768 16 17 20 20 21 23 23 22 21 22 20 22 20 23 24 23 20 18 17 18 18 19 20 23 26 27 27 27 28 29 29 29 29 31 34 34 34 36 40 42 43 45 46 45 40 39 39 41 45 47 49 51 54 58 61 64 69 74 81 85 89 96 100 102 102 105 106 107 107 107 104 100 97 92 90 89 88 85 83 80 79 73 66 60 57 53 45 43 39 35 32 30 29 30 32 33 33 32 31 30 29 33 36 44 47 51 56 60 68 73 80 87 93 98 104 109 112 111 110 110 113 116 121 125 128 129 126 122 117 112 109 106 102 100 98 101 103 104 110 114 115 120 122 123 124 127 133 136 137 137 136 135 133 124 114 106 101 99 98 92 87 92 90 82 83 88 88 86 85 80 74 71 71 69 67 65 64 65 67 66 64 63 64 66 67 69 71 69 68 65 62 60 58 59 60 62 67 70 72 71 71 69 71 71 67 65 62 63 65 64 64 62 67 70 75 79 78 78 78 83 86 90 97 101 105 109 113 117 119 120 120 121 123 121 121 122 124 129 131 133 135 138 140 139 141 138 135 136 132 128 124 124 123 124 126 128 136 136 137 143 145 147 146 144 144 146 150 155 155 150 143 141 135 128 117 108 101 89 85 78 81 80 80 82 87 99 104 110 117 124 126 127 128 126 125 123 121 118 113 109 104 99 97 95 95 94 94 98 97 97 97 95 95 94 90 84 83 82 81 79 77 74 75 72 70 69 71 68 66 66 64 62 58 54 52 50 -32768 -32768 -32768
-32768 -32768 -32768 -32768 -32768 -32768 -32768 -32768 -32768 -32768 -32768 -32768 -32768 -32768 -32768 -32768 -32768 14 15 16 18 21 24 23 17 18 17 19 18 19 19 23 23 22 22 21 19 19 20 21 26 29 29 28 27 30 32 33 32 32 32 33 34 33 33 35 38 41 43 45 44 39 37 39 43 46 49 52 55 58 62 63 65 70 78 84 89 94 99 101 103 103 104 103 102 101 99 98 97 92 88 88 87 86 85 82 80 77 73 70 65 60 50 44 41 39 34 30 29 29 31 33 34 34 35 34 34 34 37 44 52 55 57 60 64 71 78 84 90 95 101 104 109 111 111 112 111 112 120 126 129 131 133 130 129 123 113 105 100 96 93 94 97 100 102 105 111 116 119 121 123 124 127 131 136 138 139 138 135 130 123 115 107 101 96 94 95 95 94 95 97 97 98 98 98 96 91 84 80 76 76 75 72 68 64 63 62 64 65 65 67 69 69 70 70 69 66 63 61 62 64 66 67 70 72 74 73 70 70 69 68 67 66 66 65 63 64 61 64 68 72 75 81 83 86 89 89 94 95 98 103 106 111 117 121 122 123 125 127 129 128 128 129 131 132 134 135 135 136 137 134 133 133 131 129 127 124 122 121 121 122 124 125 127 127 130 133 137 136 139 140 142 147 152 157 160 156 149 143 140 136 125 115 105 92 87 75 77 75 78 76 83 93 100 108 113 116 119 119 121 123 123 120 120 120 117 113 108 103 99 93 92 91 90 90 90 92 95 96 97 94 90 87 87 84 82 78 76 72 72 69 70 67 67 67 64 64 64 62 58 53 50 47 45 47 -32768
-32768 -32768 -32768 -32768 -32768 -32768 -32768 -32768 -32768 -32768 -32768 -32768 -32768 -32768 -32768 -32768 -32768 -32768 13 14 16 18 20 19 20 18 17 17 19 22 20 20 21 21 23 24 23 24 26 30 34 35 36 34 32 33 35 33 33 33 33 34 34 35 35 37 39 41 42 43 42 40 39 41 45 47 51 55 59 62 66 67 70 75 80 86 94 97 99 102 103 105 103 101 100 98 96 94 92 88 86 87 85 84 83 81 77 73 68 62 60 53 49 46 42 38 31 29 28 30 32 32 33 35 38 37 38 42 46 51 57 59 63 67 71 75 81 85 89 94 99 102 103 106 107 107 108 114 119 123 128 131 133 131 127 121 111 102 94 90 89 91 93 96 98 102 105 112 119 122 125 127 131 134 136 138 139 137 136 132 124 118 111 106 103 102 101 107 109 110 111 111 111 109 107 103 100 94 86 82 83 83 80 75 71 65 62 61 62 63 64 64 64 64 65 67 65 66 67 68 71 72 72 73 74 74 73 69 66 65 65 66 69 68 64 62 63 65 65 68 71 75 79 83 86 92 97 103 104 104 108 110 114 120 125 129 130 131 132 137 137 134 135 136 138 140 141 139 136 134 131 129 130 129 127 127 126 124 122 120 118 115 114 115 117 120 125 127 129 130 135 140 147 155 157 158 156 150 144 142 136 131 123 111 104 85 79 85 86 78 78 78 85 94 100 104 109 112 116 118 120 121 120 121 120 118 114 109 104 101 96 92 88 86 85 85 87 89 91 90 89 88 89 87 88 83 80 77 73 70 69 67 66 63 63 64 64 66 62 58 51 47 47 44 45 -32768
-32768 -32768 -32768 -32768 -32768 -32768 -32768 -32768 -32768 -32768 -32768 -32768 -32768 -32768 -32768 -32768 -32768 -32768 18 17 17 18 19 19 21 21 21 22 22 21 20 19 16 17 19 21 24 28 32 36 40 43 45 45 43 42 40 40 37 37 37 36 35 35 37 38 40 42 43 45 45 43 44 46 48 50 52 55 60 64 68 72 77 81 86 90 93 94 93 93 95 96 94 93 93 92 90 90 89 88 84 83 82 80 80 77 72 67 62 56 53 47 44 39 36 34 30 32 32 33 31 33 33 36 41 44 45 51 56 60 63 66 68 70 71 74 75 80 84 88 91 95 101 103 105 107 111 113 118 118 122 125 129 127 121 115 106 97 91 88 88 88 90 93 97 99 100 104 109 116 121 123 127 133 135 137 141 137 135 133 129 124 117 115 114 115 114 113 115 116 118 119 118 115 111 109 107 102 95 91 89 88 86 81 78 74 69 66 65 63 62 62 63 63 65 66 66 67 67 70 72 74 72 73 72 70 69 64 65 65 66 67 67 64 62 62 61 64 65 70 73 77 82 87 93 97 101 103 106 109 113 117 120 123 127 130 133 138 141 142 146 146 148 147 149 152 149 144 139 135 130 128 128 127 127 127 127 126 125 123 121 116 114 110 111 111 114 120 124 125 129 136 143 149 155 156 153 149 146 144 140 138 133 122 113 91 82 83 82 83 76 74 77 84 92 100 105 108 110 112 115 117 119 117 116 114 112 107 101 98 95 92 88 85 84 82 82 83 82 83 82 85 84 86 85 83 79 77 72 68 68 66 64 63 63 64 67 66 61 56 51 48 46 -32768 -32768 -32768
-32768 -32768 -32768 -32768 -32768 -32768 -32768 -32768 -32768 -32768 -32768 -32768 -32768 -32768 -32768 -32768 -32768 -32768 21 21 18 17 17 18 20 21 21 22 21 19 18 15 15 14 15 19 23 28 35 41 46 49 53 55 57 57 54 52 53 50 50 47 46 45 43 44 46 49 48 50 50 51 52 51 50 51 53 55 58 62 67 72 78 81 83 84 84 83 79 79 81 83 85 87 85 82 81 82 80 79 75 75 75 75 75 72 70 65 57 52 47 43 42 38 37 35 34 36 38 37 36 35 38 43 47 50 53 56 61 65 68 69 68 67 67 68 69 71 77 82 83 90 95 97 98 102 102 103 105 108 112 115 121 120 117 112 104 99 94 90 88 89 90 92 94 94 95 100 105 113 119 123 127 132 137 142 143 140 137 135 133 130 126 124 123 122 122 122 124 124 126 125 124 121 117 115 112 108 103 98 96 95 94 89 85 81 76 72 69 67 66 66 66 65 62 63 63 66 68 71 75 75 75 75 71 68 66 68 66 67 68 69 72 68 61 59 60 61 65 71 74 79 85 88 93 97 102 106 109 111 116 121 125 129 132 135 138 140 145 149 152 156 159 161 162 160 157 155 151 142 138 133 132 132 133 133 132 129 127 126 122 119 113 108 106 108 109 114 115 118 124 130 134 136 145 148 147 148 145 145 144 139 132 128 118 103 87 81 76 74 73 73 74 78 86 92 100 103 104 107 110 114 115 117 115 111 107 102 97 95 93 91 90 86 84 82 81 80 78 75 74 75 78 80 80 78 74 71 69 67 64 65 65 65 65 64 62 59 57 56 53 -32768 -32768 -32768 -32768 -32768
-32768 -32768 -32768 -32768 -32768 -32768 -32768 -32768 -32768 -32768 -32768 -32768 -32768 -32768 -32768 -32768 -32768 -32768 21 23 20 17 16 13 17 19 20 19 18 17 17 15 14 14 16 19 22 26 33 40 45 49 54 58 62 64 65 68 69 69 68 65 66 65 65 62 60 60 58 57 55 53 53 53 52 54 54 55 56 59 66 71 76 76 75 73 73 71 67 67 68 70 74 76 74 75 73 74 73 69 69 64 63 65 68 69 70 64 53 49 44 43 42 38 35 35 36 37 37 37 37 41 45 50 53 55 57 60 65 67 68 69 67 65 63 64 66 70 74 78 81 85 86 88 90 91 93 96 99 101 106 111 116 117 117 114 109 102 95 90 87 85 85 88 91 94 98 103 107 112 118 120 123 132 139 140 142 144 148 143 140 137 131 127 127 127 126 127 132 135 135 134 132 128 123 120 115 111 108 104 103 101 100 98 90 86 83 78 76 75 73 74 72 68 63 63 61 64 67 69 70 74 75 73 72 68 66 65 64 67 70 74 73 71 63 56 52 54 63 73 77 82 87 90 93 97 103 108 112 116 119 122 126 130 133 134 136 140 145 150 155 160 164 166 167 166 164 160 157 152 145 138 137 136 136 134 131 130 129 129 128 127 123 115 110 108 108 110 108 110 115 121 126 134 134 139 140 141 141 141 139 136 132 128 118 110 97 83 75 71 71 72 74 77 82 88 95 101 103 108 113 118 119 119 116 113 110 104 102 99 98 98 96 92 88 85 81 78 75 74 73 74 70 70 72 72 69 68 68 67 65 64 63 63 63 58 58 57 56 -32768 -32768 -32768 -32768 -32768 -32768 -32768
-32768 -32768 -32768 -32768 -32768 -32768 -32768 -32768 -32768 -32768 -32768 -32768 -32768 -32768 -32768 -32768 -32768 -32768 16 20 20 15 14 12 14 15 14 15 17 17 17 16 17 17 20 21 24 27 31 36 40 45 50 55 60 64 69 75 76 77 77 75 76 76 77 78 75 71 67 63 57 54 53 50 48 50 54 55 55 59 62 67 68 69 68 65 64 62 59 59 62 65 66 68 68 69 68 68 68 66 61 60 59 61 64 66 64 58 54 49 43 39 38 35 34 35 36 35 35 34 39 43 49 54 56 57 58 59 61 63 64 63 63 60 59 60 65 68 70 73 76 78 79 82 85 89 93 97 101 107 112 115 118 119 116 114 110 104 97 90 87 84 84 87 90 93 97 100 105 110 115 118 122 131 135 139 143 146 152 148 143 135 128 124 124 126 128 130 133 135 136 133 130 127 122 120 120 116 111 107 105 103 103 101 95 90 90 89 87 83 82 78 73 68 63 61 62 63 63 63 65 66 69 70 70 66 66 64 65 66 72 71 71 67 60 57 54 55 61 68 72 79 85 87 91 97 103 108 111 115 120 125 127 133 137 139 141 145 149 154 157 161 164 167 168 168 166 164 162 162 160 153 148 142 137 134 132 133 134 134 132 132 129 125 121 116 112 109 107 106 108 111 116 122 121 125 130 136 137 137 137 136 135 131 123 112 98 83 77 74 73 73 73 77 82 88 94 99 104 111 116 119 121 120 119 117 114 110 106 103 100 100 97 92 89 85 81 79 77 76 75 75 73 72 72 70 69 70 70 69 67 65 63 61 59 56 54 -32768 -32768 -32768 -32768 -32768 -32768 -32768 -32768 -32768
-32768 -32768 -32768 -32768 -32768 -32768 -32768 -32768 -32768 -32768 -32768 -32768 -32768 -32768 -32768 -32768 -32768 -32768 13 16 15 16 14 12 13 13 12 14 13 16 15 16 18 21 24 27 30 35 36 37 39 43 46 49 54 60 68 74 75 75 76 77 76 77 77 77 72 70 67 63 59 55 50 46 44 46 49 50 52 55 58 61 59 59 59 59 57 54 50 49 52 56 59 61 63 63 64 62 62 61 61 59 58 60 61 60 60 57 53 49 45 42 39 33 32 31 32 32 31 35 38 47 53 59 60 58 57 55 54 55 56 56 55 55 53 57 58 60 64 64 65 69 76 81 85 89 95 101 106 111 115 115 118 117 113 110 106 101 98 91 88 85 86 88 90 93 96 101 107 111 117 121 128 133 138 142 143 148 150 144 136 128 125 126 127 127 127 128 128 129 127 123 120 118 118 117 118 116 111 111 108 105 102 100 96 91 91 90 88 85 81 78 74 67 62 61 62 61 61 61 65 66 66 66 66 65 65 63 64 65 66 63 63 61 57 55 56 58 62 64 70 73 77 82 90 100 109 113 116 118 121 123 127 131 136 138 142 148 154 157 160 162 164 167 168 166 166 166 166 167 166 163 158 152 140 137 138 138 135 134 134 134 131 128 125 122 120 114 108 105 104 104 107 114 111 114 117 118 129 131 132 131 134 132 127 118 105 90 80 77 76 76 77 78 82 87 92 98 104 112 117 121 123 124 125 124 118 115 112 109 105 103 99 97 91 87 84 82 81 80 79 77 76 74 72 72 72 71 69 69 67 66 63 60 59 -32768 -32768 -32768 -32768 -32768 -32768 -32768 -32768 -32768 -32768 -32768
-32768 -32768 -32768 -32768 -32768 -32768 -32768 -32768 -32768 -32768 -32768 -32768 -32768 -32768 -32768 -32768 -32768 -32768 13 13 14 16 17 15 14 12 15 14 16 16 16 18 19 23 27 30 33 35 36 36 38 40 44 49 52 57 64 71 74 75 76 75 75 76 74 72 70 67 64 60 56 53 48 44 43 44 44 45 48 50 52 55 56 55 55 53 54 54 50 47 46 47 51 55 57 57 56 55 54 53 54 55 57 58 59 59 59 56 52 47 44 42 38 34 30 27 28 30 32 36 39 43 50 55 59 57 51 50 49 51 51 50 50 49 52 55 58 61 61 62 65 67 71 76 82 89 97 103 108 113 117 117 117 113 112 107 101 97 95 90 86 84 86 88 90 92 95 100 106 112 118 123 129 134 139 143 146 147 145 140 134 130 129 128 128 125 122 118 117 114 114 113 112 112 110 111 109 110 111 106 104 102 101 100 99 95 92 88 85 83 78 76 73 67 62 59 59 58 60 61 65 66 67 64 66 66 63 62 64 64 64 63 61 58 55 54 57 59 62 65 66 68 72 78 84 90 101 109 113 117 121 123 125 131 136 139 142 147 153 157 161 161 162 164 165 166 167 167 168 168 166 164 162 158 151 145 143 140 137 138 135 133 133 132 131 128 124 118 111 106 103 102 103 105 112 113 114 116 120 123 125 125 126 129 128 123 112 96 85 79 77 75 74 77 80 85 89 93 102 109 119 122 125 127 127 124 121 120 118 115 112 107 102 96 92 90 88 85 84 81 78 75 75 73 72 71 73 73 70 68 67 67 63 -32768 -32768 -32768 -32768 -32768 -32768 -32768 -32768 -32768 -32768 -32768 -32768 -32768
-32768 -32768 -32768 -32768 -32768 -32768 -32768 -32768 -32768 -32768 -32768 -32768 -32768 -32768 -32768 -32768 -32768 -32768 11 12 12 14 15 15 15 15 15 16 16 14 18 20 22 24 29 31 33 34 35 35 36 39 43 48 51 57 65 72 76 76 72 72 72 74 72 71 69 65 60 57 53 51 47 43 41 41 41 43 42 46 48 49 49 50 49 49 49 50 50 48 46 46 48 52 53 52 49 47 46 45 45 48 51 54 55 55 53 49 43 39 38 38 35 31 26 24 24 26 28 32 37 39 46 48 52 53 53 49 47 47 50 50 52 55 59 64 66 67 69 71 71 72 75 79 86 92 98 102 107 111 113 113 111 109 106 101 94 91 88 84 83 82 84 88 90 92 97 104 109 114 118 123 129 136 142 146 148 147 146 141 135 130 127 125 122 120 114 110 107 107 104 104 105 101 98 98 98 99 101 104 106 107 108 108 104 101 93 86 80 77 75 74 70 67 63 59 58 56 56 57 59 61 62 61 62 60 61 62 63 66 68 65 62 57 52 49 51 56 61 63 66 69 72 77 81 85 93 100 105 111 116 120 124 129 134 138 142 145 151 151 150 151 156 160 161 163 166 168 167 167 168 166 163 160 156 151 143 140 138 136 136 138 139 139 136 133 127 121 116 109 104 101 100 100 101 106 108 111 112 113 115 120 122 122 123 120 113 103 90 81 77 75 74 77 80 81 84 88 97 104 113 117 123 125 124 122 119 116 115 114 112 108 103 99 93 91 90 90 89 85 81 78 76 72 70 68 69 70 71 70 68 -32768 -32768 -32768 -32768 -32768 -32768 -32768 -32768 -32768 -32768 -32768 -32768 -32768 -32768 -32768
-32768 -32768 -32768 -32768 -32768 -32768 -32768 -32768 -32768 -32768 -32768 -32768 -32768 -32768 -32768 -32768 -32768 -32768 13 12 8 10 12 14 14 16 16 17 17 18 20 22 24 26 28 30 34 36 38 38 37 40 48 52 56 61 66 71 71 68 67 68 71 74 72 70 69 65 61 56 52 49 47 42 37 36 37 38 41 43 44 44 44 42 42 43 42 43 44 43 45 45 45 43 43 41 39 40 41 43 43 44 47 50 52 51 48 45 40 35 34 33 32 30 23 23 23 24 28 30 35 38 44 45 48 48 48 47 48 49 51 52 55 61 65 70 73 76 78 78 80 81 84 89 94 99 103 106 108 109 110 109 106 103 100 95 91 89 83 78 77 77 82 86 90 94 99 105 108 113 119 124 131 139 145 149 151 151 148 144 137 132 129 127 124 118 113 110 106 104 102 99 99 98 96 94 93 93 96 99 103 108 109 109 103 94 87 79 74 72 69 68 69 66 64 58 54 53 54 59 62 63 63 62 64 66 62 64 67 69 70 68 64 61 55 50 49 53 58 60 63 68 73 75 79 85 89 94 97 103 109 113 117 122 129 134 136 137 140 143 144 146 144 150 154 158 158 161 165 165 165 163 162 159 155 150 145 138 137 136 138 140 142 140 139 135 129 123 118 112 111 104 100 99 98 100 101 102 107 110 113 113 117 120 123 122 112 104 97 87 80 81 78 79 81 79 83 88 96 106 110 113 118 121 121 119 117 112 108 110 108 105 101 98 95 91 90 89 87 82 79 76 73 70 67 65 65 67 67 -32768 -32768 -32768 -32768 -32768 -32768 -32768 -32768 -32768 -32768 -32768 -32768 -32768 -32768 -32768 -32768 -32768
-32768 -32768 -32768 -32768 -32768 -32768 -32768 -32768 -32768 -32768 -32768 -32768 -32768 -32768 -32768 -32768 -32768 -32768 11 11 11 10 10 12 12 16 16 17 18 20 23 25 24 23 24 28 32 36 36 37 37 40 47 52 53 57 61 62 62 63 65 66 66 66 66 67 68 67 62 56 53 50 49 43 38 34 35 36 37 40 39 38 38 37 36 38 38 40 41 40 39 39 39 38 35 35 35 34 35 39 42 44 46 48 49 49 44 39 35 35 33 33 31 28 24 20 22 24 26 28 33 38 39 40 43 45 45 45 48 50 51 53 57 61 67 73 77 80 81 86 89 90 92 96 100 104 107 108 111 111 110 109 104 101 96 92 89 84 78 74 71 71 75 82 89 92 99 106 109 115 121 126 132 138 143 144 148 148 147 144 140 135 130 126 122 119 114 112 109 105 101 99 97 96 95 94 97 97 96 98 102 104 101 99 94 89 84 77 72 70 68 66 64 64 60 59 57 53 54 58 61 62 63 63 64 65 66 66 69 70 71 70 68 64 57 53 49 50 54 58 64 67 70 74 77 83 87 90 95 100 108 112 115 120 123 127 129 129 130 132 134 137 140 142 145 148 151 154 157 159 159 160 159 155 151 146 142 135 133 133 135 137 141 140 139 136 132 128 126 122 118 111 104 101 100 98 98 102 105 107 109 111 113 118 121 119 117 114 100 88 81 82 82 82 81 81 85 90 97 105 109 112 113 117 118 116 110 104 98 101 100 99 98 94 92 88 85 83 80 79 79 77 74 70 68 66 65 -32768 -32768 -32768 -32768 -32768 -32768 -32768 -32768 -32768 -32768 -32768 -32768 -32768 -32768 -32768 -32768 -32768 -32768 -32768
-32768 -32768 -32768 -32768 -32768 -32768 -32768 -32768 -32768 -32768 -32768 -32768 -32768 -32768 -32768 -32768 -32768 -32768 10 11 11 10 10 10 11 14 15 16 17 17 20 20 21 22 24 26 28 31 30 30 31 32 36 43 47 52 55 60 58 60 61 63 60 60 65 64 66 68 62 57 53 50 48 43 37 34 32 34 35 37 36 36 36 35 32 32 35 37 37 37 37 37 34 33 33 33 33 35 35 36 38 40 42 43 42 41 38 34 35 32 31 29 25 23 19 20 20 23 25 25 28 34 36 38 38 38 40 45 47 49 52 54 57 61 65 70 74 79 83 89 93 94 97 102 105 108 110 112 113 114 112 107 101 96 92 87 82 80 75 73 70 71 74 80 87 90 95 100 104 108 112 119 127 136 141 144 148 148 150 146 142 135 129 124 121 119 115 112 108 105 102 98 95 93 92 91 95 94 94 97 99 101 97 92 86 80 77 73 69 66 64 62 60 59 57 54 53 53 49 53 58 63 64 67 68 67 65 65 69 67 68 68 66 64 61 58 54 52 53 57 59 62 66 69 73 77 82 87 92 99 104 109 113 116 118 120 124 122 121 123 126 129 131 135 137 140 143 146 148 150 151 150 148 147 146 141 138 134 133 132 133 135 138 140 140 141 140 138 134 131 127 124 117 110 103 98 96 95 97 99 101 105 109 112 117 115 114 114 106 99 91 86 82 82 83 86 86 92 96 106 109 113 115 117 115 112 107 101 96 95 95 94 94 90 87 84 82 81 78 76 75 74 75 74 71 -32768 -32768 -32768 -32768 -32768 -32768 -32768 -32768 -32768 -32768 -32768 -32768 -32768 -32768 -32768 -32768 -32768 -32768 -32768 -32768 -32768
-32768 -32768 -32768 -32768 -32768 -32768 -32768 -32768 -32768 -32768 -32768 -32768 -32768 -32768 -32768 -32768 -32768 -32768 11 13 14 13 13 11 13 12 13 14 15 16 15 15 17 21 23 25 27 28 27 26 26 29 30 33 38 42 47 49 52 52 54 54 53 58 59 63 65 62 57 54 50 47 47 44 39 34 31 31 31 33 34 31 33 31 30 31 33 34 34 35 34 34 33 31 29 29 30 30 28 31 31 32 33 34 34 33 32 31 30 29 26 23 21 20 18 18 19 19 20 23 26 29 31 34 35 36 43 44 47 48 50 53 58 62 65 68 73 78 84 89 92 95 98 101 103 104 109 114 116 111 111 103 96 90 85 83 83 82 75 73 75 76 78 82 88 93 95 101 103 107 111 117 126 136 145 148 151 153 154 152 145 139 134 129 127 123 119 116 110 108 105 101 98 95 92 90 90 90 89 88 90 90 89 84 80 75 73 70 66 64 60 58 57 57 56 57 56 54 54 52 60 64 65 65 67 67 66 68 68 66 63 65 65 65 64 59 57 56 57 57 59 57 59 60 67 72 76 83 91 95 99 104 107 111 113 114 118 119 116 116 118 120 123 127 131 136 140 141 142 143 143 142 142 140 138 135 130 127 128 129 131 133 134 137 139 139 139 139 138 135 133 132 126 120 112 104 94 94 91 91 94 98 103 104 109 109 108 108 105 100 95 88 82 80 80 83 84 90 93 99 107 111 112 109 107 104 100 96 94 93 95 94 94 89 86 82 79 77 77 76 73 70 68 -32768 -32768 -32768 -32768 -32768 -32768 -32768 -32768 -32768 -32768 -32768 -32768 -32768 -32768 -32768 -32768 -32768 -32768 -32768 -32768 -32768 -32768 -32768
-32768 -32768 -32768 -32768 -32768 -32768 -32768 -32768 -32768 -32768 -32768 -32768 -32768 -32768 -32768 -32768 -32768 -32768 13 15 15 15 14 14 15 15 14 14 14 14 14 15 15 18 20 23 25 23 22 21 22 24 25 29 32 33 36 40 41 42 42 45 48 50 51 55 56 55 52 50 49 48 45 42 38 34 31 27 31 30 31 30 29 26 26 29 31 33 35 37 35 33 32 29 26 25 25 25 25 24 25 25 26 28 29 29 30 30 27 21 18 16 16 19 20 20 18 18 19 23 28 31 32 36 39 42 46 48 49 51 51 54 57 60 64 70 74 78 84 88 91 93 95 98 100 102 105 109 109 109 104 95 87 81 80 77 79 78 75 76 75 78 80 82 89 92 98 103 108 112 116 123 134 144 149 151 157 160 161 158 152 144 139 135 132 128 125 121 115 111 108 104 101 100 97 93 85 82 78 76 76 77 77 77 74 73 71 69 66 67 67 64 58 56 54 53 53 51 52 55 61 63 65 65 66 66 67 67 68 67 65 63 64 62 62 60 61 60 59 57 55 56 56 56 61 67 73 77 83 90 96 101 105 108 107 109 111 112 113 113 114 116 118 122 126 131 135 137 137 137 136 135 134 133 132 127 126 123 124 126 126 130 131 134 136 136 135 134 133 132 132 134 132 127 123 115 103 94 88 88 88 90 92 97 99 106 104 104 102 98 91 83 78 76 76 81 83 85 92 99 104 105 105 102 98 94 94 92 93 93 95 96 94 91 87 82 79 76 75 73 72 -32768 -32768 -32768 -32768 -32768 -32768 -32768 -32768 -32768 -32768 -32768 -32768 -32768 -32768 -32768 -32768 -32768 -32768 -32768 -32768 -32768 -32768 -32768 -32768 -32768
-32768 -32768 -32768 -32768 -32768 -32768 -32768 -32768 -32768 -32768 -32768 -32768 -32768 -32768 -32768 -32768 -32768 -32768 -32768 16 16 15 14 14 12 11 11 12 13 14 14 14 14 15 18 19 20 19 20 19 20 20 22 26 28 28 29 32 34 36 38 40 42 48 47 49 51 50 50 48 50 48 47 41 36 31 26 24 26 26 25 24 23 23 25 28 29 31 33 35 32 31 31 29 26 25 22 20 20 20 20 21 22 23 25 27 28 28 24 19 17 16 16 18 20 20 20 22 25 28 30 32 34 38 41 46 49 51 52 54 55 56 59 62 67 73 80 83 86 88 90 91 94 96 98 99 99 99 99 100 97 89 80 76 76 77 74 76 75 73 75 77 79 84 90 95 100 105 111 115 120 127 136 145 150 152 159 163 163 159 151 145 141 138 135 134 130 128 123 118 113 108 104 101 98 94 88 82 75 72 72 73 73 72 72 72 70 69 66 65 67 66 62 59 56 55 51 50 51 54 59 62 63 65 63 62 63 63 65 67 65 63 65 65 63 61 60 57 58 56 56 58 58 59 63 68 71 74 79 85 91 95 95 97 99 100 102 104 106 109 111 113 115 119 124 128 130 132 133 134 134 133 131 131 130 126 121 119 118 119 123 126 128 128 129 132 129 128 126 126 128 130 131 132 131 124 113 103 94 88 88 87 87 89 95 100 100 100 98 94 87 79 72 72 70 72 78 82 89 97 101 104 102 100 96 94 91 87 88 88 91 91 89 89 85 81 76 73 71 -32768 -32768 -32768 -32768 -32768 -32768 -32768 -32768 -32768 -32768 -32768 -32768 -32768 -32768 -32768 -32768 -32768 -32768 -32768 -32768 -32768 -32768 -32768 -32768 -32768 -32768 -32768
-32768 -32768 -32768 -32768 -32768 -32768 -32768 -32768 -32768 -32768 -32768 -32768 -32768 -32768 -32768 -32768 -32768 -32768 -32768 14 14 15 12 10 12 10 10 11 11 13 13 14 12 13 14 15 16 16 17 18 18 18 18 20 24 26 28 30 32 33 31 31 32 37 43 47 48 46 44 42 43 41 38 34 30 27 24 21 21 20 20 23 21 21 22 24 26 29 31 32 33 30 30 30 27 24 22 20 18 18 17 17 18 20 21 24 24 24 22 18 15 14 15 18 20 23 26 29 31 33 35 36 40 44 48 49 51 52 54 56 59 60 61 64 69 75 81 86 87 84 85 87 91 94 95 94 92 92 91 89 87 81 73 69 68 67 66 67 69 68 70 71 75 83 87 93 100 106 111 118 124 133 140 145 148 153 159 163 162 160 155 151 146 143 139 137 134 134 128 119 115 113 109 104 99 96 92 88 83 80 76 75 73 69 68 66 67 69 68 65 66 66 63 61 61 57 53 50 51 54 58 60 61 61 61 63 61 59 59 61 60 63 62 63 62 58 57 56 58 58 56 59 60 63 64 67 70 74 78 83 88 90 91 93 95 97 98 99 100 101 101 104 110 113 122 126 128 129 131 132 133 131 130 132 130 128 122 117 116 116 119 124 125 125 122 123 121 121 123 123 125 126 129 130 128 126 119 109 98 93 90 87 87 88 91 95 97 95 95 91 87 82 74 69 67 68 71 75 83 91 98 100 98 96 90 86 83 82 84 86 87 86 88 85 83 79 76 -32768 -32768 -32768 -32768 -32768 -32768 -32768 -32768 -32768 -32768 -32768 -32768 -32768 -32768 -32768 -32768 -32768 -32768 -32768 -32768 -32768 -32768 -32768 -32768 -32768 -32768 -32768 -32768 -32768
-32768 -32768 -32768 -32768 -32768 -32768 -32768 -32768 -32768 -32768 -32768 -32768 -32768 -32768 -32768 -32768 -32768 -32768 -32768 15 14 15 15 13 12 13 12 11 9 9 10 11 12 12 12 13 12 15 15 16 15 15 16 16 18 19 21 25 27 26 24 25 25 29 32 36 36 34 33 32 33 32 31 29 26 25 23 20 18 18 18 19 19 20 22 25 26 29 32 32 31 29 29 31 27 24 21 20 18 16 15 14 15 16 18 19 20 21 20 15 12 12 13 17 19 22 25 29 33 37 40 45 48 52 54 53 54 55 56 61 64 67 69 70 73 78 82 85 83 81 80 83 87 90 90 89 87 85 84 82 80 74 68 64 63 62 63 66 67 68 71 73 75 79 85 93 98 103 109 115 123 131 138 144 149 154 159 164 164 161 156 153 149 145 143 143 142 137 130 124 122 118 115 109 105 102 98 95 91 89 84 80 77 73 69 66 65 67 68 68 67 67 66 65 63 60 54 49 48 50 54 57 58 59 61 62 63 58 55 54 56 56 59 56 53 51 50 53 57 57 57 59 60 61 61 62 64 66 71 76 80 82 85 89 91 94 96 99 96 93 92 95 98 102 110 117 123 126 129 132 134 136 134 134 129 128 123 118 114 117 114 116 116 115 117 119 116 116 118 118 120 123 126 128 128 128 124 116 109 102 95 88 84 84 87 86 87 86 88 88 85 82 75 69 67 67 66 69 77 84 93 96 92 93 87 82 82 79 83 83 84 84 82 80 83 -32768 -32768 -32768 -32768 -32768 -32768 -32768 -32768 -32768 -32768 -32768 -32768 -32768 -32768 -32768 -32768 -32768 -32768 -32768 -32768 -32768 -32768 -32768 -32768 -32768 -32768 -32768 -32768 -32768 -32768 -32768
-32768 -32768 -32768 -32768 -32768 -32768 -32768 -32768 -32768 -32768 -32768 -32768 -32768 -32768 -32768 -32768 -32768 -32768 -32768 10 12 12 14 15 15 13 13 12 10 7 6 10 11 13 12 13 13 12 12 12 11 11 13 13 15 16 18 21 23 23 20 19 20 22 24 27 28 28 27 27 27 25 24 24 22 22 21 19 18 17 16 16 16 17 19 23 27 28 30 30 30 29 28 28 25 22 20 18 17 16 16 16 16 16 16 17 17 17 18 16 13 14 17 21 23 25 26 31 34 36 40 46 51 55 57 58 60 62 62 62 66 70 71 70 70 74 78 81 78 76 77 78 82 86 86 84 82 80 77 75 75 70 67 63 61 62 67 73 75 75 77 79 80 83 89 93 100 105 111 116 123 129 134 140 145 150 157 162 164 161 158 157 157 156 154 151 147 143 136 132 126 122 117 114 111 107 103 98 94 91 88 85 81 77 71 67 65 63 62 63 64 66 69 68 67 64 57 49 46 49 49 49 51 55 57 59 59 60 60 57 57 56 57 55 53 51 48 49 52 56 59 59 60 62 64 65 65 66 68 69 73 79 84 88 89 91 92 91 92 90 88 89 93 96 99 108 114 120 126 131 136 136 136 134 131 129 126 121 116 110 108 107 108 110 113 114 116 114 114 116 118 122 127 130 132 131 129 122 114 108 100 92 86 83 83 82 80 83 83 84 81 79 75 73 67 62 65 67 74 84 91 90 93 84 82 77 79 80 81 83 84 84 81 -32768 -32768 -32768 -32768 -32768 -32768 -32768 -32768 -32768 -32768 -32768 -32768 -32768 -32768 -32768 -32768 -32768 -32768 -32768 -32768 -32768 -32768 -32768 -32768 -32768 -32768 -32768 -32768 -32768 -32768 -32768 -32768 -32768
-32768 -32768 -32768 -32768 -32768 -32768 -32768 -32768 -32768 -32768 -32768 -32768 -32768 -32768 -32768 -32768 -32768 -32768 -32768 10 10 10 15 15 15 13 13 12 11 9 8 8 9 11 12 14 14 14 13 11 10 11 12 12 11 11 12 15 19 20 18 17 18 19 20 19 21 22 22 21 21 22 21 20 19 19 18 17 17 17 14 14 15 16 19 22 24 25 26 26 26 27 28 25 22 19 16 16 16 17 18 19 18 19 19 18 15 13 15 16 15 16 17 17 20 23 27 33 35 37 39 43 49 54 58 61 64 64 61 58 59 62 64 66 70 74 75 78 75 74 73 74 76 80 84 82 78 75 73 70 69 68 65 62 61 65 70 75 77 79 82 84 86 89 93 98 104 109 115 119 125 128 131 139 142 148 153 159 162 163 163 163 164 163 159 153 149 147 141 134 129 125 117 113 111 109 105 100 95 92 91 89 85 82 74 68 65 64 62 62 63 66 69 71 69 66 62 51 45 44 47 46 46 49 54 57 59 57 57 60 59 59 57 54 50 48 46 52 53 56 57 58 60 60 61 61 62 61 62 62 66 73 77 82 86 90 89 89 88 85 80 83 86 91 95 102 111 118 125 128 132 137 138 137 134 130 129 124 116 107 105 102 104 107 108 109 111 112 115 115 118 122 126 130 131 132 132 123 118 112 106 101 93 86 82 81 81 82 82 81 78 76 73 73 70 68 65 65 72 79 88 88 88 88 81 77 78 82 85 81 82 -32768 -32768 -32768 -32768 -32768 -32768 -32768 -32768 -32768 -32768 -32768 -32768 -32768 -32768 -32768 -32768 -32768 -32768 -32768 -32768 -32768 -32768 -32768 -32768 -32768 -32768 -32768 -32768 -32768 -32768 -32768 -32768 -32768 -32768 -32768
-32768 -32768 -32768 -32768 -32768 -32768 -32768 -32768 -32768 -32768 -32768 -32768 -32768 -32768 -32768 -32768 -32768 -32768 -32768 9 9 10 11 13 14 14 13 13 12 12 11 11 9 9 12 12 13 13 13 12 11 11 11 11 10 9 9 11 12 14 16 16 17 18 19 19 20 19 20 19 20 19 19 18 17 15 15 15 14 13 14 14 17 20 23 23 25 23 22 23 24 26 24 22 19 18 17 18 17 16 17 18 19 20 18 17 15 15 15 17 16 15 17 16 17 21 24 29 34 36 39 42 46 51 56 60 61 61 59 55 54 55 58 61 64 69 70 71 67 64 65 68 71 75 80 82 78 73 70 66 67 66 61 58 61 67 73 77 80 81 84 89 94 98 101 106 109 111 116 120 123 125 129 133 137 141 148 155 159 161 164 166 166 164 161 153 148 144 140 134 130 126 121 114 110 105 98 94 88 86 87 88 88 86 83 75 69 67 64 62 61 63 67 68 66 64 59 51 43 41 42 42 42 43 48 52 55 55 55 54 54 55 56 51 52 47 45 49 52 54 56 57 58 57 58 58 59 60 59 59 63 65 71 75 80 84 86 85 83 79 78 81 83 88 94 98 106 116 121 127 131 136 140 140 139 135 129 123 115 109 104 103 101 102 103 103 105 107 110 112 115 117 119 124 128 131 129 124 119 116 111 109 101 91 85 81 78 77 78 77 76 73 71 71 73 71 68 65 70 77 81 83 87 85 80 75 74 73 80 -32768 -32768 -32768 -32768 -32768 -32768 -32768 -32768 -32768 -32768 -32768 -32768 -32768 -32768 -32768 -32768 -32768 -32768 -32768 -32768 -32768 -32768 -32768 -32768 -32768 -32768 -32768 -32768 -32768 -32768 -32768 -32768 -32768 -32768 -32768 -32768 -32768
-32768 -32768 -32768 -32768 -32768 -32768 -32768 -32768 -32768 -32768 -32768 -32768 -32768 -32768 -32768 -32768 -32768 -32768 -32768 9 9 9 9 9 11 13 12 11 11 10 10 9 9 8 9 11 11 12 13 13 12 11 11 11 11 10 11 12 12 13 13 14 16 17 18 18 19 18 19 18 19 20 18 17 15 15 15 16 15 14 14 15 18 19 19 21 19 18 20 20 20 21 18 19 19 18 17 20 17 16 18 17 18 18 18 16 15 16 16 16 15 14 14 15 15 18 22 24 29 33 38 42 44 51 55 59 60 59 58 53 51 51 52 55 59 64 66 66 64 62 64 67 70 74 76 77 71 68 67 65 65 64 63 60 61 65 72 77 79 80 81 86 92 98 104 111 115 118 120 123 126 124 126 131 133 136 144 147 152 158 162 165 167 166 160 154 147 142 138 135 129 124 117 110 103 100 95 91 86 84 83 83 83 85 84 82 77 72 67 63 59 58 61 64 65 63 60 53 46 42 42 42 41 40 41 44 45 45 44 42 42 43 43 45 48 49 52 50 50 52 54 58 61 60 60 61 60 61 62 63 65 66 68 72 77 81 79 80 74 72 74 78 82 87 93 101 107 113 121 127 132 136 139 140 136 134 131 126 119 114 110 109 109 106 102 98 101 103 105 107 109 115 117 118 120 124 124 121 120 117 114 112 109 100 94 88 81 76 73 74 74 72 70 71 72 71 68 63 65 71 75 77 82 83 79 77 77 -32768 -32768 -32768 -32768 -32768 -32768 -32768 -32768 -32768 -32768 -32768 -32768 -32768 -32768 -32768 -32768 -32768 -32768 -32768 -32768 -32768 -32768 -32768 -32768 -32768 -32768 -32768 -32768 -32768 -32768 -32768 -32768 -32768 -32768 -32768 -32768 -32768 -32768 -32768
-32768 -32768 -32768 -32768 -32768 -32768 -32768 -32768 -32768 -32768 -32768 -32768 -32768 -32768 -32768 -32768 -32768 -32768 -32768 8 8 9 10 10 10 12 12 12 10 10 9 8 8 8 9 8 9 11 11 12 12 11 10 10 13 12 11 11 11 12 11 14 14 14 15 16 18 16 17 17 18 18 18 18 17 16 16 16 15 14 15 15 15 16 18 17 19 18 16 16 17 16 16 15 17 19 20 21 22 20 14 15 17 16 17 15 15 13 13 11 11 13 12 14 15 16 19 23 25 29 34 39 44 50 52 54 56 56 55 53 49 51 51 54 52 55 59 61 64 64 66 68 71 74 75 73 70 67 65 63 62 61 62 62 62 66 73 78 78 79 79 84 92 99 106 112 116 119 120 122 125 126 126 127 128 131 132 138 145 150 154 157 159 158 156 152 148 140 133 128 125 119 114 110 106 100 95 94 90 86 84 82 81 80 78 76 74 71 68 65 60 58 58 58 58 59 59 56 52 43 43 43 41 39 38 38 38 38 36 35 36 38 39 41 45 47 52 54 55 56 58 62 64 64 63 63 64 64 64 64 65 67 70 70 72 74 75 74 69 70 73 77 81 86 91 99 104 108 116 125 131 135 137 137 135 134 132 129 122 118 115 114 109 108 104 102 99 101 103 102 106 112 115 115 116 117 120 119 121 118 119 117 118 113 105 98 90 83 79 76 75 72 72 72 71 71 68 64 65 69 72 75 76 76 74 -32768 -32768 -32768 -32768 -32768 -32768 -32768 -32768 -32768 -32768 -32768 -32768 -32768 -32768 -32768 -32768 -32768 -32768 -32768 -32768 -32768 -32768 -32768 -32768 -32768 -32768 -32768 -32768 -32768 -32768 -32768 -32768 -32768 -32768 -32768 -32768 -32768 -32768 -32768 -32768 -32768
-32768 -32768 -32768 -32768 -32768 -32768 -32768 -32768 -32768 -32768 -32768 -32768 -32768 -32768 -32768 -32768 -32768 -32768 -32768 7 7 8 9 9 9 11 11 11 10 9 9 8 8 7 8 8 8 9 10 11 11 11 11 10 10 11 11 10 9 8 9 10 12 13 15 14 14 14 15 16 17 19 19 18 18 15 15 13 13 14 15 14 17 15 16 14 14 15 15 17 16 16 14 15 18 19 22 23 19 17 15 12 14 13 14 14 12 9 10 10 12 11 13 14 15 19 21 24 28 31 35 39 43 47 47 50 52 52 50 50 47 45 46 47 49 52 56 60 66 66 68 70 72 73 72 70 69 66 62 59 56 55 57 56 59 61 66 72 76 76 78 85 93 101 107 111 113 116 118 120 123 125 124 123 122 125 128 132 138 143 146 149 150 149 151 148 141 134 130 124 121 115 111 108 104 101 97 96 93 88 85 82 79 76 72 69 66 65 64 62 59 57 56 55 56 55 54 53 51 49 47 43 39 37 36 34 34 33 32 33 34 37 39 41 44 48 52 58 63 63 65 66 69 67 67 65 64 64 66 68 68 68 67 69 70 74 75 72 71 72 73 78 81 86 90 96 102 106 115 123 127 131 136 136 136 135 134 132 128 125 119 114 111 109 106 102 97 95 97 99 103 108 112 114 112 112 112 112 114 119 122 123 122 121 111 104 99 92 88 86 82 80 78 75 73 73 73 68 67 71 71 72 74 -32768 -32768 -32768 -32768 -32768 -32768 -32768 -32768 -32768 -32768 -32768 -32768 -32768 -32768 -32768 -32768 -32768 -32768 -32768 -32768 -32768 -32768 -32768 -32768 -32768 -32768 -32768 -32768 -32768 -32768 -32768 -32768 -32768 -32768 -32768 -32768 -32768 -32768 -32768 -32768 -32768 -32768 -32768
-32768 -32768 -32768 -32768 -32768 -32768 -32768 -32768 -32768 -32768 -32768 -32768 -32768 -32768 -32768 -32768 -32768 -32768 -32768 8 7 8 8 9 9 10 10 10 9 10 10 10 10 9 9 10 9 7 8 9 10 12 13 12 10 11 12 9 10 9 10 11 13 13 12 12 12 13 14 14 16 18 18 18 19 15 12 12 12 12 14 13 15 15 12 13 15 16 15 18 16 17 18 17 19 21 19 21 20 19 15 13 13 11 12 12 14 12 13 14 14 12 13 14 17 21 27 29 31 32 38 41 42 43 44 46 47 47 45 45 44 41 42 44 47 48 52 58 60 61 61 62 64 66 65 64 63 60 58 55 54 53 52 52 53 56 59 64 69 73 78 85 92 97 101 104 107 111 112 115 116 119 121 120 120 120 125 129 137 142 142 143 144 143 144 141 136 129 126 121 119 117 114 106 103 100 96 93 91 89 84 78 75 70 67 64 63 61 59 58 56 56 55 55 55 53 50 48 46 46 46 42 38 35 33 32 31 33 34 35 38 41 42 42 44 48 56 61 66 70 73 75 76 74 72 70 71 70 73 74 72 70 67 67 68 69 71 72 71 74 74 75 78 82 86 92 99 105 112 120 124 127 130 132 133 134 133 130 127 122 117 115 110 110 104 98 93 91 90 91 95 100 105 108 108 108 111 111 115 122 127 128 129 126 121 113 109 101 97 93 87 86 84 79 77 75 77 74 72 70 68 -32768 -32768 -32768 -32768 -32768 -32768 -32768 -32768 -32768 -32768 -32768 -32768 -32768 -32768 -32768 -32768 -32768 -32768 -32768 -32768 -32768 -32768 -32768 -32768 -32768 -32768 -32768 -32768 -32768 -32768 -32768 -32768 -32768 -32768 -32768 -32768 -32768 -32768 -32768 -32768 -32768 -32768 -32768 -32768 -32768
-32768 -32768 -32768 -32768 -32768 -32768 -32768 -32768 -32768 -32768 -32768 -32768 -32768 -32768 -32768 -32768 -32768 -32768 -32768 8 8 8 9 9 10 9 10 10 9 9 10 10 11 9 9 10 10 10 8 7 8 10 12 12 11 10 10 11 12 12 12 12 13 11 10 9 10 13 13 14 15 16 16 16 14 14 13 13 13 13 12 13 15 14 12 14 15 15 13 15 15 18 21 19 18 16 17 20 17 19 16 16 12 13 14 14 13 14 16 16 16 15 15 14 16 21 29 34 37 36 39 41 42 41 43 45 45 42 40 42 41 39 39 42 43 43 46 51 54 56 56 57 59 63 64 64 61 58 54 53 52 52 52 52 55 58 61 65 69 73 78 85 89 94 94 98 103 104 105 105 107 110 113 113 116 114 117 121 129 135 138 137 138 138 136 134 132 129 128 125 121 116 110 104 100 97 92 89 86 82 80 75 71 67 65 65 64 63 61 58 55 53 52 53 54 53 52 50 49 50 47 43 38 35 34 32 32 33 34 36 39 42 45 48 49 53 61 66 67 70 74 78 80 80 79 78 77 78 78 75 72 69 65 63 62 62 65 69 73 74 75 75 76 80 84 91 97 103 111 117 120 123 123 124 127 129 128 123 124 121 118 115 111 108 104 96 91 87 87 88 91 93 96 99 99 106 107 108 115 120 126 128 130 126 121 117 115 112 107 103 97 96 91 82 74 74 73 70 70 -32768 -32768 -32768 -32768 -32768 -32768 -32768 -32768 -32768 -32768 -32768 -32768 -32768 -32768 -32768 -32768 -32768 -32768 -32768 -32768 -32768 -32768 -32768 -32768 -32768 -32768 -32768 -32768 -32768 -32768 -32768 -32768 -32768 -32768 -32768 -32768 -32768 -32768 -32768 -32768 -32768 -32768 -32768 -32768 -32768 -32768 -32768
